:FileType xyz  ASCII  EnSim 1.0
:EndHeader
923129.03 6510113.99 232.64
923100.34 6510117.89 235.92
923053.25 6510124.05 233.36
923045.4 6510125.1 233.48
923044.53 6510125.22 233.44
923042.82 6510125.44 233.25
923043.87 6510124.46 233.41
923046.17 6510124.15 233.47
923046.93 6510124.05 233.5
923049.98 6510123.65 233.57
923052.32 6510123.33 233.37
923053.07 6510123.23 233.4
923091.87 6510118.02 232.4
923100.26 6510117.02 235.9
923139.34 6510111.72 232.77
923144.33 6510111.06 232.76
923143.53 6510111.1 232.7
923141.59 6510111.36 232.72
923141.11 6510111.42 232.72
923132.22 6510112.59 232.47
923129.9 6510112.89 232.6
923129.31 6510112.98 232.66
923123.95 6510113.68 232.54
923100.19 6510116.92 235.47
923052.23 6510123.21 233.38
923044.28 6510124.26 233.43
923043.39 6510124.38 233.41
923042.53 6510124.49 233.28
923038.09 6510125.08 233.13
923042.98 6510123.66 233.45
923043.75 6510123.56 233.43
923045.26 6510123.36 233.47
923048.3 6510122.95 233.52
923099.69 6510116.18 235.7
923125.18 6510112.69 232.79
923130.61 6510111.96 232.47
923142.07 6510110.44 232.75
923143.35 6510110.27 232.81
923141.71 6510110.44 232.75
923140.28 6510110.62 232.7
923137.26 6510111.02 232.78
923100.27 6510116.01 235.77
923099.56 6510116.1 235.71
923050.82 6510122.49 233.53
923048.2 6510122.83 233.5
923046.44 6510123.07 233.47
923045.55 6510123.19 233.47
923044.67 6510123.3 233.45
923043.79 6510123.42 233.42
923042.89 6510123.54 233.48
923042.03 6510123.65 233.36
923040.25 6510123.07 233.23
923042.48 6510122.78 233.51
923043.26 6510122.68 233.49
923044.03 6510122.58 233.51
923048.6 6510121.97 233.52
923050.1 6510121.76 233.54
923135.94 6510110.32 232.8
923145.66 6510108.96 232.53
923145.24 6510109.02 232.53
923142.15 6510109.44 232.77
923122.22 6510112.04 232.39
923051.29 6510121.47 233.46
923042.51 6510122.64 233.49
923041.65 6510122.75 233.42
923041.69 6510121.83 233.46
923042.45 6510121.73 233.52
923046.28 6510121.22 233.53
923047.8 6510121.02 233.53
923049.33 6510120.81 233.5
923050.09 6510120.71 233.52
923050.86 6510120.61 233.48
923099.31 6510114.23 235.68
923144.15 6510108.18 232.7
923145.02 6510108.06 232.59
923144.2 6510108.12 232.7
923137.02 6510109.07 232.75
923050.2 6510120.57 233.53
923047.55 6510120.92 233.57
923046.68 6510121.04 233.57
923042.29 6510121.62 233.52
923040.53 6510121.85 233.4
923038.51 6510121.27 233.25
923039.25 6510121.18 233.37
923047.62 6510120.07 233.51
923048.36 6510119.97 233.52
923125.45 6510109.68 232.43
923128.94 6510109.23 232.92
923144.8 6510107.13 232.69
923146.32 6510106.93 232.76
923145.86 6510106.95 232.75
923144.64 6510107.11 232.7
923143.78 6510107.22 232.76
923141.61 6510107.51 232.75
923138.4 6510107.93 232.68
923137.42 6510108.06 232.73
923129.11 6510109.14 232.88
923125.3 6510109.63 232.46
923121.13 6510110.19 232.61
923048.78 6510119.8 233.61
923047.94 6510119.9 233.52
923041.82 6510120.72 233.52
923040.96 6510120.83 233.49
923040.08 6510120.95 233.46
923038.1 6510120.29 233.37
923038.86 6510120.19 233.42
923040.38 6510119.99 233.49
923041.14 6510119.89 233.52
923120.42 6510109.32 232.79
923121.52 6510109.18 232.8
923127.33 6510108.42 232.99
923137.1 6510107.11 232.73
923143.84 6510106.23 232.76
923149.61 6510105.47 232.82
923146.79 6510105.8 232.95
923140.62 6510106.6 232.75
923139.73 6510106.72 232.74
923138.81 6510106.84 232.74
923129.21 6510108.09 232.71
923126.93 6510108.4 232.93
923125.39 6510108.58 232.37
923121.17 6510109.15 232.8
923120.56 6510109.23 232.8
923041.85 6510119.66 233.53
923040.96 6510119.78 233.52
923040.07 6510119.89 233.5
923039.19 6510120.01 233.5
923038.32 6510120.12 233.41
923040.06 6510119.08 233.55
923040.83 6510118.97 233.56
923093.51 6510112.03 235.18
923121.42 6510108.25 232.82
923125.74 6510107.67 232.77
923141.24 6510105.57 232.62
923125.91 6510107.58 232.85
923124.83 6510107.71 232.63
923048.77 6510117.77 233.46
923039.93 6510118.95 233.56
923040.75 6510118.14 233.61
923048.39 6510117.12 233.5
923124.65 6510106.97 232.66
923140.53 6510104.8 232.74
923140.06 6510104.86 232.76
923138.64 6510105.05 232.78
923124.83 6510106.85 232.59
923117.53 6510107.81 232.64
923097.65 6510110.54 235.91
923096.95 6510110.63 235.8
923048.56 6510116.92 233.41
923041.5 6510117.86 233.63
923042.48 6510116.95 233.64
923087.98 6510110.87 232.44
923139.16 6510104.12 232.78
923133.64 6510104.79 232.49
923120.0 6510106.59 233.0
923048.12 6510116.07 233.31
923042.8 6510116.78 233.56
923043.69 6510115.94 233.65
923046.79 6510115.52 233.46
923047.56 6510115.42 233.43
923115.41 6510106.43 232.51
923117.11 6510106.2 232.56
923124.28 6510105.26 232.53
923139.23 6510103.29 232.75
923140.5 6510103.13 232.76
923144.17 6510102.64 232.7
923149.67 6510101.91 232.89
923138.29 6510103.38 232.76
923047.99 6510115.26 233.36
923038.57 6510115.6 233.45
923046.23 6510114.59 233.5
923047.02 6510114.48 233.42
923047.78 6510114.38 233.41
923117.62 6510105.15 232.83
923119.83 6510104.87 233.08
923132.63 6510103.17 232.54
923146.08 6510101.41 232.85
923148.27 6510101.13 232.93
923146.84 6510101.27 232.91
923145.67 6510101.42 232.81
923142.74 6510101.8 232.69
923123.6 6510104.3 232.72
923046.49 6510114.44 233.49
923045.58 6510114.57 233.62
923038.52 6510115.49 233.45
923045.7 6510113.64 233.49
923141.76 6510100.96 232.66
923147.91 6510100.17 232.96
923146.28 6510100.34 232.93
923137.56 6510101.46 232.72
923132.72 6510102.09 232.64
923118.67 6510103.94 233.11
923117.52 6510104.08 232.89
923044.43 6510113.68 233.5
923043.58 6510113.79 233.44
923041.21 6510113.27 233.34
923085.01 6510107.47 232.65
923117.21 6510103.25 232.9
923143.68 6510099.77 232.86
923147.45 6510099.22 232.94
923144.66 6510099.58 232.83
923125.2 6510102.1 232.67
923085.49 6510107.28 232.73
923084.81 6510107.36 232.44
923046.85 6510112.36 233.46
923038.05 6510113.52 233.58
923045.25 6510111.72 233.47
923045.98 6510111.62 233.56
923139.67 6510099.28 232.56
923140.44 6510099.18 232.66
923143.47 6510098.79 232.79
923148.51 6510098.13 232.95
923148.44 6510098.09 232.95
923144.64 6510098.57 232.8
923141.09 6510099.03 232.75
923119.22 6510101.87 233.03
923044.88 6510111.57 233.52
923115.79 6510101.35 232.84
923121.21 6510100.65 232.89
923122.25 6510100.51 232.92
923142.48 6510097.87 232.82
923142.84 6510097.82 232.82
923142.5 6510097.81 232.82
923125.14 6510100.04 232.59
923121.68 6510100.5 232.89
923118.74 6510100.88 232.99
923118.15 6510100.96 232.98
923116.38 6510101.19 232.89
923038.11 6510110.35 233.59
923042.67 6510109.75 233.49
923115.09 6510100.28 232.76
923117.76 6510099.93 232.92
923122.0 6510099.38 232.82
923142.81 6510096.67 232.81
923147.26 6510096.1 232.94
923148.91 6510095.88 232.97
923148.39 6510095.92 232.94
923147.8 6510096.0 232.94
923142.5 6510096.67 232.77
923127.83 6510098.57 232.81
923117.27 6510099.93 232.89
923088.5 6510103.75 235.5
923126.9 6510097.55 232.82
923129.74 6510097.18 232.85
923149.19 6510094.64 233.06
923145.94 6510095.05 232.91
923144.62 6510095.22 232.83
923131.3 6510096.93 232.8
923127.79 6510097.38 232.83
923120.74 6510098.29 232.88
923119.59 6510098.44 232.89
923117.28 6510098.74 232.83
923038.13 6510107.87 233.37
923041.16 6510107.48 233.47
923086.56 6510101.65 235.5
923113.7 6510098.04 232.72
923121.67 6510097.02 232.96
923141.76 6510094.42 232.87
923144.74 6510094.03 232.94
923145.65 6510093.92 232.99
923147.59 6510093.63 232.98
923128.07 6510096.13 232.87
923120.0 6510097.16 232.93
923118.27 6510097.39 232.96
923117.19 6510097.52 232.74
923087.15 6510101.48 235.55
923086.44 6510101.56 235.44
923040.59 6510107.41 233.47
923039.7 6510107.53 233.57
923039.08 6510106.53 233.58
923039.86 6510106.42 233.49
923079.03 6510101.3 232.26
923086.25 6510100.48 235.54
923117.86 6510096.31 232.97
923121.0 6510095.9 233.01
923132.14 6510094.45 232.8
923134.79 6510094.11 232.65
923145.01 6510092.79 232.92
923145.61 6510092.72 232.98
923144.2 6510092.85 232.88
923132.48 6510094.35 232.79
923117.65 6510096.25 232.96
923117.09 6510096.32 232.9
923078.91 6510101.19 232.26
923038.83 6510105.34 233.57
923089.98 6510098.77 234.67
923093.63 6510098.25 233.18
923112.55 6510095.79 232.46
923115.71 6510095.4 233.03
923116.28 6510095.32 233.01
923116.82 6510095.25 232.98
923117.36 6510095.18 232.98
923135.18 6510092.88 232.76
923136.89 6510092.65 232.54
923141.68 6510092.05 232.95
923148.26 6510091.2 232.9
923148.21 6510091.16 232.9
923146.12 6510091.42 232.93
923141.29 6510092.04 232.95
923131.01 6510093.33 232.76
923116.41 6510095.2 233.0
923094.92 6510097.94 232.96
923094.16 6510098.04 233.13
923093.4 6510098.14 233.25
923089.33 6510098.72 234.9
923115.81 6510094.1 232.98
923118.5 6510093.76 232.92
923120.0 6510093.57 233.08
923129.78 6510092.31 232.77
923132.35 6510091.98 232.99
923140.23 6510090.97 232.94
923141.94 6510090.76 232.99
923147.37 6510090.06 232.93
923149.14 6510089.79 232.86
923147.85 6510089.96 232.91
923141.58 6510090.75 233.0
923140.85 6510090.84 233.0
923135.29 6510091.54 232.9
923132.59 6510091.89 233.01
923131.69 6510092.0 232.95
923113.46 6510094.31 232.89
923038.2 6510103.92 233.66
923090.92 6510095.98 233.33
923116.85 6510092.65 232.88
923133.28 6510090.56 233.06
923147.99 6510088.68 232.87
923148.66 6510088.59 232.9
923147.14 6510088.76 232.92
923143.06 6510089.27 232.98
923141.07 6510089.52 232.94
923118.7 6510092.35 233.02
923114.13 6510092.92 233.0
923090.47 6510095.94 233.41
923081.77 6510095.95 235.14
923114.86 6510091.66 232.87
923132.35 6510089.44 233.09
923133.2 6510089.34 233.09
923134.04 6510089.23 233.09
923146.82 6510087.6 232.86
923147.1 6510087.56 232.84
923148.82 6510087.32 232.95
923147.32 6510087.5 232.84
923145.26 6510087.76 232.95
923143.97 6510087.93 233.03
923141.99 6510088.17 232.91
923135.32 6510089.01 233.02
923133.55 6510089.24 233.09
923132.2 6510089.41 233.09
923120.07 6510090.92 232.82
923118.89 6510091.08 233.01
923117.76 6510091.22 232.98
923112.55 6510091.86 232.61
923081.74 6510095.84 235.06
923085.6 6510094.09 234.73
923089.22 6510093.59 233.5
923118.31 6510089.88 232.95
923130.45 6510088.34 232.87
923143.03 6510086.75 232.97
923146.61 6510086.29 232.83
923147.42 6510086.19 232.78
923149.07 6510085.99 232.96
923149.17 6510085.94 232.97
923147.99 6510086.08 232.8
923147.73 6510086.11 232.79
923146.35 6510086.29 232.86
923143.57 6510086.64 232.97
923142.57 6510086.76 232.96
923135.71 6510087.62 232.92
923130.35 6510088.29 232.87
923129.87 6510088.35 232.88
923119.51 6510089.64 232.76
923114.88 6510090.23 232.86
923085.68 6510093.96 234.66
923074.53 6510094.09 232.59
923075.19 6510094.01 232.71
923089.11 6510092.26 232.92
923117.18 6510088.71 232.94
923118.22 6510088.58 232.85
923120.29 6510088.31 232.7
923134.52 6510086.53 233.01
923138.71 6510085.98 232.6
923144.23 6510085.3 232.98
923146.88 6510084.92 232.78
923145.58 6510085.09 232.86
923144.15 6510085.27 232.99
923085.95 6510092.58 234.01
923085.12 6510092.69 234.36
923117.24 6510087.45 232.77
923132.43 6510085.55 233.1
923134.43 6510085.29 233.04
923145.14 6510083.94 232.9
923138.95 6510084.64 232.62
923134.21 6510085.25 233.0
923128.48 6510085.96 233.01
923128.0 6510086.02 233.04
923125.63 6510086.3 232.86
923125.17 6510086.36 232.77
923119.44 6510087.07 232.74
923114.33 6510087.71 232.98
923112.02 6510088.0 232.89
923086.06 6510091.25 233.33
923086.08 6510090.05 233.26
923104.75 6510087.7 232.95
923113.75 6510086.57 232.95
923114.28 6510086.51 233.02
923115.33 6510086.38 233.07
923117.51 6510086.1 232.83
923118.54 6510085.97 232.82
923122.49 6510085.48 233.02
923124.44 6510085.23 232.97
923127.68 6510084.83 233.04
923131.22 6510084.38 232.96
923132.88 6510084.17 232.96
923139.43 6510083.34 232.66
923142.34 6510082.98 232.86
923142.67 6510082.94 232.81
923144.65 6510082.7 233.01
923146.81 6510082.42 232.83
923142.39 6510082.93 232.83
923139.34 6510083.29 232.65
923132.84 6510084.11 232.96
923131.08 6510084.33 232.95
923130.62 6510084.38 232.97
923129.2 6510084.56 233.07
923128.71 6510084.62 233.1
923125.85 6510084.97 232.97
923124.34 6510085.16 232.96
923123.81 6510085.23 232.99
923117.4 6510086.02 232.86
923115.63 6510086.24 233.05
923115.05 6510086.31 233.07
923113.93 6510086.45 232.97
923113.35 6510086.52 232.94
923094.54 6510087.66 232.63
923108.52 6510085.92 232.79
923120.95 6510084.37 232.85
923127.76 6510083.53 233.11
923128.61 6510083.42 233.11
923130.34 6510083.2 233.01
923131.16 6510083.1 232.95
923133.93 6510082.75 232.91
923142.25 6510081.71 232.83
923143.82 6510081.52 233.06
923145.06 6510081.37 233.06
923145.77 6510081.28 233.03
923149.7 6510080.76 232.92
923147.41 6510081.04 232.93
923147.22 6510081.06 232.92
923146.13 6510081.2 233.0
923133.89 6510082.69 232.91
923133.48 6510082.74 232.93
923130.5 6510083.11 233.0
923128.68 6510083.34 233.1
923128.22 6510083.4 233.11
923127.3 6510083.51 233.1
923126.37 6510083.62 233.05
923120.93 6510084.29 232.85
923117.76 6510084.67 232.74
923117.19 6510084.75 232.84
923120.65 6510083.0 232.96
923123.51 6510082.65 232.94
923125.83 6510082.35 232.82
923128.39 6510082.04 233.01
923129.26 6510081.93 232.94
923145.67 6510079.89 232.87
923148.39 6510079.55 233.06
923149.4 6510079.41 233.08
923143.43 6510080.13 232.98
923133.74 6510081.32 232.91
923128.13 6510082.01 233.01
923116.46 6510083.44 232.95
923113.07 6510083.86 232.89
923112.5 6510083.93 232.86
923104.84 6510083.63 232.73
923108.82 6510083.15 232.96
923109.39 6510083.08 232.92
923110.55 6510082.93 232.79
923112.18 6510082.73 232.93
923120.04 6510081.76 233.1
923121.58 6510081.57 232.97
923128.21 6510080.74 232.9
923129.96 6510080.53 232.99
923139.04 6510079.4 232.78
923143.19 6510078.9 233.0
923143.48 6510078.86 232.99
923144.95 6510078.67 232.84
923145.22 6510078.64 232.86
923148.3 6510078.26 233.03
923148.52 6510078.23 233.03
923149.19 6510078.13 233.05
923148.8 6510078.17 233.02
923143.06 6510078.87 233.0
923140.49 6510079.17 232.77
923135.49 6510079.79 232.96
923133.84 6510079.99 232.91
923131.19 6510080.32 232.97
923127.44 6510080.78 232.94
923123.41 6510081.27 232.93
923119.08 6510081.81 233.08
923107.28 6510083.25 232.99
923108.66 6510081.89 233.01
923123.1 6510080.11 233.09
923124.06 6510079.99 233.03
923125.98 6510079.74 232.75
923132.73 6510078.91 232.93
923143.45 6510077.59 232.96
923144.08 6510077.48 232.92
923132.55 6510078.88 232.92
923131.25 6510079.04 232.94
923129.01 6510079.31 232.96
923128.09 6510079.42 232.92
923117.9 6510080.66 232.91
923113.33 6510081.23 233.04
923110.41 6510081.58 232.91
923107.94 6510081.89 233.05
923105.17 6510080.99 232.91
923117.59 6510079.47 233.01
923123.43 6510078.75 233.09
923132.17 6510077.67 232.91
923132.56 6510077.62 232.9
923132.8 6510077.52 232.92
923129.78 6510077.89 232.99
923123.61 6510078.64 233.09
923117.89 6510079.33 233.01
923113.95 6510079.81 233.1
923111.11 6510080.15 232.89
923110.51 6510080.22 232.87
923108.68 6510080.45 232.98
923106.23 6510080.75 232.97
923077.23 6510083.17 234.89
923105.9 6510079.59 232.97
923117.54 6510078.16 232.99
923122.44 6510077.47 233.0
923117.0 6510078.13 232.99
923116.39 6510078.2 233.09
923110.55 6510078.91 232.97
923106.89 6510079.35 232.88
923105.61 6510079.51 232.94
923103.72 6510079.73 232.8
923077.02 6510083.05 234.82
923105.98 6510078.23 232.95
923108.82 6510077.88 233.07
923109.41 6510077.81 233.03
923105.75 6510078.15 232.97
923063.17 6510080.49 232.85
923064.51 6510080.34 233.22
923067.75 6510079.99 234.36
923070.32 6510079.71 235.27
923075.4 6510079.06 234.44
923071.04 6510079.5 235.33
923075.13 6510077.6 234.48
923060.22 6510077.8 232.57
923060.79 6510077.91 232.77
923060.53 6510078.15 232.71
923063.88 6510081.51 232.71
923064.41 6510081.41 232.9
923069.38 6510080.43 235.19
923064.27 6510081.64 232.81
923113.02 6510077.58 233.1
923104.89 6510083.11 232.76
923069.2 6510089.28 232.33
923123.84 6510081.98 232.95
923112.86 6510083.86 232.87
923113.17 6510085.74 232.93
923115.58 6510085.42 233.07
923108.52 6510086.63 232.79
923089.54 6510091.82 233.06
923089.27 6510093.65 233.53
923092.3 6510093.18 233.13
923122.23 6510088.3 232.71
923082.6 6510094.79 235.7
923038.09 6510102.43 233.77
923121.92 6510090.21 232.7
923083.29 6510098.38 235.07
923114.2 6510093.37 232.99
923089.61 6510097.48 234.41
923086.86 6510099.68 235.56
923089.97 6510099.22 234.72
923093.65 6510098.7 233.23
923118.81 6510094.59 233.0
923117.43 6510094.83 232.97
923115.61 6510095.13 233.05
923101.93 6510097.48 232.61
923090.16 6510099.31 234.76
923038.26 6510109.78 233.5
923042.28 6510109.11 233.42
923088.08 6510101.32 235.5
923118.09 6510096.5 232.98
923122.13 6510095.82 233.04
923125.41 6510095.34 232.49
923114.09 6510097.25 232.79
923113.81 6510097.3 232.74
923087.66 6510101.52 235.53
923113.92 6510099.11 232.61
923096.72 6510102.06 232.98
923042.86 6510112.85 233.49
923047.43 6510112.09 233.37
923115.43 6510100.8 232.83
923116.22 6510100.74 232.91
923115.51 6510100.86 232.84
923114.33 6510101.08 232.6
923040.52 6510113.51 233.38
923046.47 6510114.13 233.52
923115.04 6510102.76 232.44
923118.02 6510102.29 233.04
923085.33 6510107.88 232.48
923048.51 6510115.83 233.27
923118.03 6510104.32 233.04
923116.97 6510104.52 232.73
923116.76 6510104.56 232.67
923047.75 6510116.17 233.51
923038.66 6510119.46 233.47
923039.96 6510119.24 233.55
923088.79 6510111.28 232.58
923087.98 6510111.45 232.09
923040.53 6510119.37 233.54
923039.85 6510119.48 233.55
923039.18 6510119.6 233.5
923040.7 6510121.31 233.48
923041.35 6510121.2 233.47
923119.18 6510108.26 232.88
923120.18 6510108.14 232.86
923119.09 6510108.32 232.88
923117.63 6510108.58 232.78
923042.05 6510121.33 233.51
923040.05 6510121.68 233.42
923039.4 6510121.8 233.33
923038.73 6510121.91 233.26
923041.75 6510123.49 233.3
923042.36 6510123.38 233.46
923043.0 6510123.27 233.48
923044.29 6510123.05 233.49
923044.94 6510122.94 233.47
923048.13 6510122.41 233.5
923050.0 6510122.09 233.58
923050.64 6510121.98 233.56
923051.92 6510121.78 233.41
923120.72 6510110.36 232.59
923112.69 6510111.77 232.51
923051.89 6510122.0 233.37
923049.89 6510122.32 233.6
923049.25 6510122.43 233.55
923048.6 6510122.55 233.52
923047.3 6510122.77 233.48
923046.64 6510122.88 233.48
923045.99 6510122.99 233.45
923043.3 6510123.44 233.48
923042.64 6510123.56 233.45
923040.66 6510123.91 233.27
923039.33 6510124.14 233.17
923038.64 6510124.26 233.14
923043.93 6510125.43 233.41
923044.57 6510125.32 233.45
923045.21 6510125.21 233.48
923052.89 6510123.93 233.36
923056.86 6510123.33 232.48
923098.96 6510116.06 235.85
923099.79 6510115.93 235.71
923104.97 6510115.22 233.62
923055.83 6510123.68 233.18
923048.54 6510124.88 233.71
923044.6 6510125.56 233.46
923043.94 6510125.68 233.41
923043.31 6510125.79 233.26
923042.65 6510125.91 233.22
923038.34 6510128.95 233.18
923042.96 6510128.17 233.19
923045.5 6510127.74 233.36
923054.4 6510126.25 233.32
923055.62 6510126.04 233.35
923093.45 6510119.79 232.56
923111.27 6510116.95 232.54
923055.39 6510126.37 233.34
923045.64 6510128.01 233.39
923045.02 6510128.13 233.24
923044.36 6510128.24 233.2
923047.62 6510130.01 233.37
923058.9 6510128.15 233.09
923094.94 6510122.37 232.41
923046.87 6510130.45 233.25
923046.2 6510130.57 233.23
923045.56 6510130.68 233.18
923040.19 6510133.94 233.23
923046.75 6510132.84 233.23
923049.3 6510132.41 233.28
923053.09 6510131.77 233.37
923058.09 6510130.94 233.26
923058.75 6510130.84 233.11
923101.56 6510123.51 235.95
923101.95 6510123.45 235.94
923102.29 6510123.38 236.12
923102.03 6510123.61 235.95
923052.78 6510132.14 233.41
923052.09 6510132.25 233.51
923050.85 6510132.47 233.29
923046.23 6510133.27 233.14
923038.58 6510136.97 233.14
923059.53 6510133.46 233.27
923106.84 6510125.45 235.36
923107.08 6510125.39 235.63
923107.33 6510125.32 235.95
923118.23 6510123.77 232.62
923107.01 6510125.58 235.39
923106.72 6510125.64 235.25
923041.74 6510136.8 233.14
923040.82 6510139.28 233.29
923041.48 6510139.18 233.26
923042.14 6510139.07 233.22
923044.77 6510138.64 233.13
923045.43 6510138.53 233.1
923059.67 6510136.13 233.33
923106.63 6510128.19 235.32
923106.99 6510128.14 235.21
923106.81 6510128.3 235.39
923106.42 6510128.36 235.55
923053.35 6510137.51 233.37
923040.77 6510139.65 233.28
923039.73 6510142.26 233.16
923043.7 6510141.6 233.08
923052.65 6510140.09 233.18
923053.28 6510139.99 233.2
923054.52 6510139.78 233.22
923057.56 6510139.26 233.37
923103.92 6510131.6 232.7
923104.55 6510131.47 233.04
923109.62 6510130.58 235.57
923109.31 6510130.63 235.54
923104.21 6510131.71 232.74
923045.45 6510141.62 233.13
923039.29 6510142.66 233.14
923038.61 6510142.78 233.11
923046.56 6510143.87 233.2
923064.72 6510140.83 233.25
923065.31 6510140.73 233.26
923110.07 6510133.25 235.46
923065.02 6510141.04 233.25
923059.21 6510141.99 233.54
923041.75 6510144.97 233.16
923041.04 6510145.09 233.16
923040.33 6510145.21 233.21
923038.92 6510145.45 233.17
923038.86 6510147.91 233.22
923039.56 6510147.8 233.17
923040.25 6510147.68 233.14
923041.6 6510147.46 233.12
923042.95 6510147.24 233.1
923044.27 6510147.01 233.2
923048.22 6510146.35 233.22
923048.89 6510146.24 233.17
923057.22 6510144.84 233.24
923058.44 6510144.63 233.29
923059.05 6510144.53 233.35
923059.65 6510144.42 233.41
923066.99 6510143.22 233.25
923106.97 6510136.75 232.64
923059.35 6510144.74 233.35
923048.14 6510146.63 233.19
923046.12 6510146.98 233.15
923038.42 6510148.28 233.18
923039.93 6510150.48 233.17
923041.31 6510150.26 233.1
923042.68 6510150.03 233.07
923046.69 6510149.35 233.18
923048.01 6510149.13 233.22
923048.66 6510149.02 233.21
923049.34 6510148.91 233.2
923051.31 6510148.58 233.21
923051.96 6510148.47 233.22
923053.28 6510148.25 233.2
923055.21 6510147.93 233.17
923056.48 6510147.71 233.24
923060.25 6510147.08 233.3
923060.86 6510146.97 233.33
923061.5 6510146.87 233.31
923065.81 6510146.15 233.3
923068.24 6510145.76 233.21
923113.24 6510138.18 234.46
923113.54 6510138.13 234.51
923114.15 6510138.02 234.59
923113.65 6510138.24 234.45
923113.34 6510138.29 234.41
923113.04 6510138.35 234.33
923108.68 6510139.23 232.41
923108.32 6510139.3 232.33
923064.79 6510146.58 233.31
923064.16 6510146.69 233.3
923061.6 6510147.12 233.29
923056.37 6510148.0 233.26
923054.37 6510148.34 233.18
923053.69 6510148.45 233.19
923053.01 6510148.56 233.26
923052.34 6510148.68 233.23
923048.94 6510149.26 233.2
923048.23 6510149.37 233.23
923044.07 6510150.09 233.09
923041.25 6510150.56 233.08
923039.76 6510153.25 233.2
923040.44 6510153.14 233.18
923058.87 6510150.06 233.22
923061.99 6510149.53 233.3
923068.1 6510148.52 233.32
923069.93 6510148.23 233.18
923071.2 6510148.04 232.92
923115.19 6510140.59 234.73
923115.78 6510140.49 234.76
923116.05 6510140.43 234.89
923116.27 6510140.38 235.18
923116.21 6510140.53 234.78
923115.59 6510140.64 234.75
923067.59 6510148.87 233.3
923051.17 6510151.65 233.23
923049.78 6510151.88 233.22
923049.09 6510152.0 233.22
923047.73 6510152.23 233.17
923043.53 6510152.95 233.06
923042.1 6510153.19 233.07
923039.91 6510153.55 233.21
923038.47 6510153.79 233.22
923039.79 6510155.95 233.21
923043.24 6510155.39 233.01
923049.84 6510154.27 233.16
923053.07 6510153.73 233.25
923058.18 6510152.87 233.24
923060.69 6510152.46 233.23
923063.14 6510152.04 233.33
923063.74 6510151.94 233.33
923066.17 6510151.53 233.33
923066.78 6510151.43 233.34
923127.21 6510141.52 232.75
923117.2 6510143.02 235.54
923069.69 6510151.24 233.27
923065.92 6510151.88 233.33
923065.3 6510151.98 233.31
923064.67 6510152.09 233.28
923060.83 6510152.75 233.22
923060.18 6510152.86 233.22
923059.53 6510152.97 233.21
923051.48 6510154.32 233.21
923048.05 6510154.9 233.14
923046.0 6510155.26 233.01
923044.59 6510155.5 233.03
923043.88 6510155.62 233.03
923043.18 6510155.74 233.05
923039.56 6510156.34 233.18
923038.11 6510158.92 233.25
923047.59 6510157.35 233.02
923050.8 6510156.8 233.23
923053.98 6510156.26 233.4
923054.64 6510156.15 233.34
923063.4 6510154.69 233.28
923065.18 6510154.38 233.41
923071.15 6510153.41 233.27
923072.32 6510153.22 233.26
923073.27 6510153.37 233.11
923065.19 6510154.71 233.41
923063.97 6510154.93 233.26
923063.34 6510155.04 233.28
923061.41 6510155.36 233.26
923060.77 6510155.47 233.24
923043.2 6510158.45 233.1
923043.16 6510160.87 233.13
923045.92 6510160.42 232.96
923048.6 6510159.98 232.99
923060.22 6510158.01 233.25
923060.85 6510157.91 233.25
923061.49 6510157.8 233.25
923121.04 6510147.79 234.89
923066.08 6510157.32 233.3
923064.16 6510157.65 233.26
923062.86 6510157.87 233.28
923061.56 6510158.09 233.26
923060.9 6510158.2 233.26
923060.25 6510158.3 233.24
923059.59 6510158.42 233.23
923046.67 6510160.62 232.97
923045.26 6510160.86 232.98
923043.79 6510161.1 233.14
923040.19 6510161.7 233.19
923038.01 6510162.07 233.23
923039.54 6510164.16 233.17
923041.61 6510163.82 233.17
923046.44 6510163.02 232.93
923049.12 6510162.57 232.97
923051.08 6510162.23 233.13
923052.39 6510162.01 233.17
923058.84 6510160.92 233.29
923062.02 6510160.39 233.33
923062.64 6510160.28 233.34
923063.28 6510160.18 233.35
923067.02 6510159.55 233.29
923067.63 6510159.46 233.32
923068.23 6510159.36 233.35
923068.81 6510159.25 233.43
923069.44 6510159.15 233.36
923071.89 6510158.75 233.25
923075.43 6510158.16 233.26
923076.02 6510158.07 233.23
923076.65 6510157.98 233.05
923123.26 6510150.08 234.83
923123.47 6510150.04 234.95
923123.7 6510150.0 235.02
923125.86 6510149.67 235.59
923124.46 6510149.95 235.14
923123.79 6510150.08 234.99
923123.54 6510150.12 234.95
923123.31 6510150.17 234.89
923077.4 6510158.1 232.98
923074.92 6510158.5 233.25
923073.08 6510158.81 233.25
923069.31 6510159.44 233.33
923068.68 6510159.54 233.36
923064.85 6510160.2 233.3
923058.93 6510161.19 233.29
923051.48 6510162.46 233.13
923049.44 6510162.82 232.98
923043.02 6510163.89 233.14
923042.3 6510164.01 233.18
923040.86 6510164.26 233.19
923039.4 6510164.5 233.23
923038.67 6510164.62 233.27
923049.91 6510165.24 232.95
923050.56 6510165.12 233.0
923053.16 6510164.68 233.15
923055.73 6510164.24 233.26
923059.55 6510163.59 233.4
923060.17 6510163.48 233.47
923065.85 6510162.54 233.29
923078.95 6510160.38 233.1
923078.51 6510160.69 233.12
923076.67 6510160.99 233.24
923074.85 6510161.29 233.28
923066.07 6510162.78 233.27
923056.79 6510164.33 233.35
923056.13 6510164.45 233.28
923052.08 6510165.15 233.08
923048.63 6510165.75 232.94
923046.47 6510166.11 233.05
923042.86 6510166.71 233.17
923042.14 6510166.83 233.19
923047.09 6510168.46 233.04
923051.15 6510167.79 232.94
923051.79 6510167.68 232.98
923068.94 6510164.79 233.28
923075.56 6510163.69 233.26
923076.14 6510163.59 233.27
923071.18 6510080.04 235.29
923079.05 6510078.72 233.2
923131.74 6510154.23 234.53
923134.38 6510153.92 233.05
923134.47 6510153.91 233.05
923075.7 6510079.46 234.47
923071.13 6510080.25 235.32
923070.54 6510080.35 235.42
923069.49 6510080.55 235.21
923075.7 6510163.89 233.29
923075.1 6510163.99 233.27
923073.26 6510164.3 233.24
923055.73 6510167.27 233.14
923052.34 6510167.85 233.01
923050.99 6510168.09 232.92
923038.81 6510170.13 233.21
923039.8 6510172.24 233.19
923043.93 6510171.56 233.09
923044.63 6510171.44 233.06
923045.29 6510171.33 233.1
923045.97 6510171.22 233.09
923046.64 6510171.1 233.06
923048.69 6510170.77 232.99
923049.37 6510170.66 232.9
923050.04 6510170.55 232.91
923050.7 6510170.44 232.94
923051.37 6510170.32 232.93
923053.33 6510169.99 232.99
923055.28 6510169.66 233.05
923056.56 6510169.44 233.11
923057.17 6510169.33 233.23
923072.76 6510166.73 233.23
923133.01 6510156.61 234.39
923133.08 6510156.64 234.4
923132.89 6510156.66 234.57
923123.7 6510158.43 232.15
923073.64 6510166.84 233.24
923073.03 6510166.94 233.24
923072.41 6510167.05 233.23
923071.8 6510167.16 233.21
923071.18 6510167.26 233.21
923069.27 6510167.58 233.24
923057.56 6510169.56 233.26
923054.92 6510170.02 233.06
923053.58 6510170.25 232.98
923052.89 6510170.37 232.97
923050.84 6510170.72 232.93
923048.04 6510171.19 233.05
923046.62 6510171.43 233.07
923045.91 6510171.54 233.1
923045.21 6510171.66 233.09
923039.5 6510172.63 233.15
923038.85 6510175.03 233.11
923040.88 6510174.68 233.19
923045.69 6510173.89 233.05
923047.74 6510173.55 232.91
923058.83 6510171.67 233.2
923077.22 6510168.6 233.26
923084.06 6510167.45 233.25
923113.84 6510077.72 233.03
923083.86 6510167.74 233.16
923056.26 6510172.43 233.04
923055.59 6510172.54 233.0
923045.18 6510174.31 233.05
923038.73 6510175.4 233.09
923041.7 6510177.12 233.18
923056.59 6510174.63 233.0
923078.94 6510170.88 233.2
923081.83 6510170.39 233.23
923084.11 6510170.01 233.2
923118.37 6510079.53 233.02
923118.02 6510079.59 233.01
923117.83 6510079.63 233.02
923109.92 6510081.08 232.94
923106.47 6510081.71 232.88
923105.13 6510081.96 232.8
923085.33 6510170.04 233.19
923082.4 6510170.53 233.23
923079.44 6510171.04 233.2
923077.06 6510171.46 233.04
923054.31 6510175.32 232.91
923053.64 6510175.44 232.82
923050.16 6510176.03 232.9
923041.55 6510177.47 233.17
923040.39 6510179.86 233.17
923041.09 6510179.74 233.19
923041.79 6510179.63 233.15
923045.26 6510179.05 233.06
923045.94 6510178.94 233.05
923047.31 6510178.71 233.02
923048.02 6510178.59 232.97
923050.06 6510178.26 232.91
923063.83 6510175.93 233.1
923086.7 6510172.1 233.09
923113.54 6510082.94 233.03
923111.08 6510083.41 232.76
923106.59 6510084.23 232.73
923070.33 6510090.83 232.55
923077.52 6510173.92 233.05
923072.54 6510174.77 233.01
923067.38 6510175.64 233.09
923063.44 6510176.31 233.07
923060.09 6510176.87 233.08
923059.42 6510176.99 233.05
923058.09 6510177.22 232.99
923054.7 6510177.81 232.87
923046.96 6510179.11 233.02
923042.62 6510179.84 233.13
923041.9 6510179.96 233.15
923041.17 6510180.08 233.19
923043.28 6510181.86 233.18
923046.75 6510181.28 233.1
923047.43 6510181.16 233.11
923048.11 6510181.05 233.12
923052.24 6510180.37 232.94
923058.91 6510179.25 232.95
923079.0 6510175.87 233.01
923080.72 6510175.57 233.21
923134.79 6510166.5 233.44
923121.3 6510083.91 232.83
923124.17 6510083.4 232.94
923124.23 6510083.42 232.94
923123.38 6510083.58 232.93
923121.42 6510083.95 232.83
923121.24 6510083.98 232.84
923134.72 6510166.59 233.37
923108.4 6510086.34 232.77
923108.07 6510086.41 232.75
923081.45 6510175.69 233.24
923073.42 6510177.06 233.16
923063.03 6510178.84 233.02
923061.01 6510179.18 232.98
923057.63 6510179.76 232.91
923056.94 6510179.88 232.91
923053.47 6510180.46 232.91
923052.78 6510180.58 232.91
923046.36 6510181.66 233.13
923074.7 6510178.92 233.2
923075.32 6510178.82 233.18
923079.0 6510178.2 233.06
923079.59 6510178.1 233.08
923081.4 6510177.8 233.03
923081.96 6510177.7 233.15
923082.53 6510177.6 233.19
923083.1 6510177.5 233.24
923112.69 6510087.76 232.96
923115.94 6510087.18 232.96
923135.0 6510168.81 233.05
923135.62 6510168.69 233.28
923122.05 6510086.09 232.92
923135.53 6510168.78 233.21
923134.68 6510168.96 232.82
923089.12 6510092.15 232.93
923074.29 6510179.21 233.17
923072.37 6510179.54 233.13
923057.61 6510182.07 232.82
923054.06 6510182.67 232.9
923042.24 6510186.76 233.07
923038.16 6510103.47 233.69
923061.3 6510183.55 233.03
923080.81 6510180.26 233.13
923082.72 6510095.39 235.75
923121.72 6510088.52 232.7
923122.33 6510088.41 232.7
923139.46 6510170.27 235.03
923143.44 6510169.75 233.37
923144.13 6510169.66 233.21
923144.06 6510169.68 233.21
923143.49 6510169.77 233.35
923114.41 6510089.93 232.85
923090.77 6510094.22 233.37
923057.83 6510184.41 232.9
923041.62 6510189.13 233.26
923058.82 6510186.25 232.94
923084.17 6510182.16 233.17
923059.46 6510186.38 232.95
923058.08 6510186.62 232.93
923038.07 6510106.02 233.54
923069.78 6510186.55 233.09
923077.99 6510185.16 233.16
923092.89 6510182.66 233.11
923119.05 6510093.4 233.02
923144.08 6510173.95 234.56
923147.51 6510173.52 233.13
923131.21 6510091.26 232.94
923129.91 6510091.51 232.78
923113.8 6510094.46 232.89
923090.6 6510098.62 234.48
923079.78 6510100.69 232.49
923093.12 6510182.82 233.11
923092.53 6510182.92 233.11
923078.34 6510185.33 233.16
923057.47 6510188.9 232.91
923079.03 6510187.0 233.15
923091.4 6510184.91 233.18
923091.97 6510184.81 233.2
923095.28 6510099.68 233.03
923117.39 6510095.69 232.98
923118.83 6510095.43 233.03
923138.07 6510177.12 232.33
923130.18 6510093.42 232.68
923146.95 6510175.54 233.61
923087.93 6510101.04 235.55
923091.25 6510185.11 233.21
923042.61 6510109.36 233.57
923043.3 6510110.82 233.48
923114.12 6510098.09 232.73
923113.65 6510098.28 232.71
923089.74 6510102.51 235.77
923097.03 6510187.72 233.06
923097.6 6510187.63 233.0
923089.48 6510104.35 235.66
923097.37 6510187.82 233.04
923116.94 6510101.35 232.95
923131.19 6510098.81 232.83
923115.29 6510101.75 232.75
923043.22 6510116.54 233.43
923119.74 6510102.73 233.05
923120.03 6510102.68 233.01
923147.93 6510182.88 232.94
923145.02 6510183.43 232.54
923040.19 6510117.3 233.47
923039.48 6510117.43 233.5
923041.75 6510118.6 233.64
923088.65 6510110.16 232.77
923116.56 6510105.11 232.51
923121.46 6510104.21 232.93
923144.4 6510185.29 232.25
923145.88 6510185.02 232.48
923133.2 6510102.1 232.62
923144.5 6510185.33 232.27
923121.2 6510104.33 232.97
923117.86 6510104.95 232.93
923088.56 6510110.32 232.74
923039.52 6510120.88 233.44
923051.06 6510118.78 233.72
923134.53 6510103.73 232.51
923097.33 6510110.45 235.71
923049.79 6510119.22 233.66
923049.11 6510119.34 233.6
923043.2 6510121.92 233.57
923045.24 6510121.55 233.63
923051.33 6510120.45 233.54
923136.51 6510105.07 232.81
923126.02 6510107.02 232.97
923120.76 6510107.99 232.84
923119.01 6510108.31 232.88
923094.46 6510112.69 235.33
923048.18 6510121.22 233.54
923043.24 6510122.12 233.55
923041.92 6510123.76 233.32
923049.88 6510122.31 233.6
923051.91 6510121.95 233.38
923120.86 6510109.49 232.75
923123.11 6510109.15 232.84
923121.4 6510109.47 232.77
923119.58 6510109.81 232.72
923041.82 6510123.99 233.31
923042.2 6510125.37 233.37
923044.23 6510125.0 233.46
923045.59 6510124.75 233.47
923052.34 6510123.53 233.41
923099.4 6510114.9 235.76
923104.26 6510114.11 233.82
923105.32 6510113.94 233.36
923131.3 6510109.33 232.52
923128.7 6510109.79 232.95
923049.53 6510124.23 233.65
923046.07 6510124.87 233.49
923044.67 6510125.12 233.45
923044.66 6510126.34 233.42
923047.36 6510125.84 233.51
923100.13 6510116.18 235.78
923126.14 6510111.6 232.75
923133.39 6510110.33 232.49
923099.96 6510116.31 235.83
923044.01 6510126.63 233.34
923045.07 6510127.62 233.22
923046.35 6510127.38 233.44
923046.99 6510127.26 233.57
923055.55 6510125.87 233.36
923046.66 6510127.49 233.48
923047.39 6510128.46 233.42
923056.7 6510126.78 233.33
923136.38 6510112.36 232.97
923056.49 6510128.11 233.33
923057.14 6510127.99 233.35
923057.82 6510127.87 233.28
923101.73 6510119.82 235.71
923129.17 6510114.99 232.59
923101.79 6510119.9 235.74
923096.03 6510121.09 232.7
923056.57 6510128.23 233.32
923056.98 6510129.27 233.34
923131.63 6510115.82 232.56
923136.6 6510114.92 232.88
923131.02 6510115.97 232.5
923114.91 6510118.91 232.64
923056.81 6510129.45 233.36
923054.74 6510129.82 233.43
923046.47 6510131.34 233.1
923040.19 6510133.47 233.21
923046.29 6510132.37 233.21
923052.27 6510131.29 233.19
923053.53 6510131.05 233.38
923054.8 6510130.82 233.47
923057.45 6510130.35 233.28
923058.72 6510130.12 233.32
923095.67 6510123.5 232.29
923096.5 6510123.32 232.8
923097.8 6510123.06 233.36
923097.33 6510123.24 233.0
923096.38 6510123.43 232.77
923057.84 6510130.39 233.31
923054.45 6510131.0 233.44
923046.26 6510132.49 233.21
923040.63 6510133.51 233.17
923039.2 6510133.77 233.2
923039.56 6510134.73 233.27
923043.71 6510133.99 233.2
923101.25 6510123.5 235.72
923101.62 6510123.41 236.02
923102.1 6510123.34 235.99
923136.86 6510117.2 232.92
923102.41 6510123.35 236.02
923101.85 6510123.44 236.3
923101.48 6510123.53 235.91
923060.01 6510131.15 233.43
923059.38 6510131.27 233.31
923054.6 6510132.12 233.51
923047.06 6510133.5 233.25
923042.57 6510135.34 233.21
923043.25 6510135.22 233.24
923059.09 6510132.37 233.26
923099.91 6510124.99 234.06
923101.76 6510124.59 235.62
923117.07 6510121.97 232.54
923042.94 6510135.4 233.24
923042.24 6510135.53 233.24
923041.34 6510136.63 233.14
923099.95 6510126.09 233.73
923106.99 6510124.74 235.67
923129.69 6510120.8 232.48
923132.56 6510120.3 232.76
923129.62 6510120.84 232.5
923106.97 6510124.79 236.14
923039.85 6510137.02 233.25
923038.94 6510138.05 233.19
923041.05 6510137.68 233.17
923100.63 6510126.98 233.94
923101.04 6510126.89 234.16
923106.83 6510125.82 235.02
923107.22 6510125.74 235.19
923135.97 6510120.69 232.88
923107.08 6510125.82 235.42
923101.3 6510126.93 234.0
923060.39 6510134.32 233.33
923044.19 6510137.24 233.23
923042.97 6510138.35 233.26
923043.66 6510138.23 233.27
923103.74 6510127.4 235.6
923130.36 6510122.78 232.58
923134.39 6510122.08 232.77
923041.62 6510138.74 233.26
923040.66 6510139.74 233.27
923052.69 6510137.59 233.36
923059.16 6510136.45 233.33
923060.44 6510136.22 233.31
923107.09 6510127.9 235.17
923038.45 6510141.05 233.0
923045.26 6510139.84 233.04
923059.61 6510137.27 233.43
923106.75 6510128.8 235.68
923133.37 6510124.21 232.77
923107.36 6510128.75 235.56
923061.75 6510136.99 233.3
923059.07 6510137.46 233.39
923044.66 6510140.04 233.04
923039.66 6510140.94 232.94
923038.44 6510141.98 233.09
923043.3 6510141.12 233.15
923053.49 6510139.31 233.26
923055.47 6510138.96 233.33
923058.11 6510138.49 233.36
923132.11 6510125.42 232.66
923058.16 6510138.57 233.38
923056.79 6510138.81 233.36
923053.36 6510139.43 233.25
923052.67 6510139.55 233.22
923042.68 6510141.33 233.13
923043.56 6510141.96 233.06
923057.64 6510139.47 233.38
923104.19 6510131.27 233.06
923109.55 6510130.21 235.68
923117.71 6510128.87 233.39
923118.09 6510128.8 233.35
923135.75 6510125.71 232.78
923132.56 6510126.3 232.66
923109.12 6510130.35 235.56
923064.49 6510138.36 233.23
923055.03 6510140.03 233.32
923044.54 6510141.9 233.15
923057.66 6510140.29 233.46
923065.36 6510138.94 233.25
923104.09 6510132.18 232.26
923104.52 6510132.1 232.31
923133.2 6510127.05 232.73
923107.96 6510131.43 235.12
923104.0 6510132.25 232.17
923056.38 6510140.61 233.31
923049.56 6510141.82 233.1
923047.43 6510142.2 233.16
923038.83 6510143.71 233.19
923042.11 6510143.84 233.21
923043.48 6510143.6 233.25
923057.58 6510141.13 233.36
923058.22 6510141.02 233.39
923107.71 6510132.32 234.14
923108.99 6510132.03 235.52
923123.42 6510129.64 233.23
923107.61 6510132.4 234.12
923057.66 6510141.23 233.37
923049.44 6510142.68 233.1
923048.01 6510142.93 233.17
923043.71 6510143.68 233.24
923040.13 6510144.31 233.17
923040.53 6510144.9 233.17
923041.93 6510144.66 233.18
923046.77 6510143.81 233.18
923064.68 6510140.69 233.25
923135.79 6510128.32 232.73
923064.96 6510140.76 233.24
923042.37 6510145.4 233.17
923043.06 6510145.28 233.19
923045.11 6510144.92 233.22
923053.81 6510143.41 233.26
923065.38 6510141.4 233.24
923133.23 6510129.63 232.52
923133.84 6510129.53 232.53
923043.87 6510145.26 233.23
923041.03 6510145.76 233.19
923040.3 6510145.89 233.2
923039.6 6510146.01 233.19
923039.65 6510146.75 233.15
923040.34 6510146.63 233.17
923051.88 6510144.63 233.11
923066.04 6510142.17 233.28
923121.03 6510132.64 232.98
923058.49 6510143.55 233.33
923057.83 6510143.67 233.3
923053.06 6510144.5 233.2
923046.74 6510145.6 233.21
923046.04 6510145.72 233.19
923041.75 6510146.47 233.15
923041.02 6510146.6 233.14
923039.84 6510147.46 233.17
923041.93 6510147.1 233.13
923046.71 6510146.27 233.23
923121.91 6510133.28 232.88
923137.16 6510130.65 232.49
923122.16 6510133.27 232.81
923107.61 6510135.8 232.8
923048.06 6510146.12 233.22
923045.2 6510146.61 233.22
923044.48 6510146.74 233.2
923040.6 6510148.12 233.13
923044.0 6510147.53 233.17
923057.25 6510145.24 233.24
923059.79 6510144.8 233.37
923067.36 6510143.5 233.28
923107.2 6510136.67 232.7
923066.91 6510143.62 233.22
923059.6 6510144.88 233.35
923058.94 6510144.99 233.33
923044.32 6510147.52 233.18
923043.61 6510147.65 233.17
923038.51 6510148.53 233.19
923038.29 6510149.24 233.2
923039.0 6510149.12 233.13
923039.68 6510149.0 233.19
923040.38 6510148.88 233.16
923045.84 6510147.94 233.19
923047.19 6510147.71 233.21
923049.21 6510147.37 233.2
923057.76 6510145.9 233.26
923060.33 6510145.45 233.31
923060.72 6510145.44 233.46
923058.1 6510145.89 233.28
923056.79 6510146.12 233.14
923051.3 6510147.07 233.15
923050.6 6510147.19 233.23
923049.9 6510147.31 233.19
923049.2 6510147.43 233.2
923047.81 6510147.67 233.17
923046.4 6510147.91 233.19
923044.98 6510148.16 233.17
923044.26 6510148.28 233.17
923043.58 6510148.4 233.08
923042.15 6510148.64 233.09
923038.39 6510149.91 233.22
923043.27 6510149.08 233.08
923045.3 6510148.73 233.18
923045.98 6510148.61 233.17
923050.69 6510147.8 233.22
923056.66 6510146.78 233.19
923061.15 6510146.01 233.36
923064.97 6510145.36 233.33
923065.59 6510145.25 233.32
923065.62 6510145.33 233.32
923064.3 6510145.55 233.38
923060.99 6510146.12 233.32
923058.29 6510146.59 233.29
923057.64 6510146.7 233.22
923052.13 6510147.65 233.21
923048.63 6510148.25 233.19
923045.07 6510148.86 233.18
923038.14 6510150.64 233.23
923040.24 6510150.28 233.18
923043.03 6510149.81 233.1
923047.78 6510148.99 233.2
923048.45 6510148.88 233.22
923051.8 6510148.31 233.21
923052.47 6510148.19 233.25
923058.38 6510147.18 233.25
923060.32 6510146.85 233.29
923064.15 6510146.19 233.28
923065.42 6510145.98 233.27
923113.01 6510137.8 234.63
923113.36 6510137.73 234.69
923116.14 6510137.23 235.28
923113.35 6510137.77 234.64
923112.99 6510137.83 234.59
923108.66 6510138.65 232.53
923067.74 6510145.64 233.24
923065.14 6510146.08 233.3
923058.53 6510147.22 233.24
923057.85 6510147.33 233.25
923055.84 6510147.68 233.22
923052.4 6510148.27 233.25
923046.11 6510149.34 233.17
923045.39 6510149.47 233.19
923044.7 6510149.59 233.13
923042.57 6510149.95 233.08
923040.39 6510150.32 233.16
923039.66 6510150.45 233.18
923038.93 6510150.57 233.19
923038.19 6510150.7 233.23
923040.29 6510150.91 233.15
923044.41 6510150.21 233.1
923045.07 6510150.1 233.17
923045.74 6510149.98 233.18
923046.43 6510149.86 233.18
923048.43 6510149.52 233.23
923049.79 6510149.29 233.17
923055.72 6510148.28 233.19
923057.01 6510148.06 233.25
923057.66 6510147.95 233.23
923058.3 6510147.84 233.26
923059.58 6510147.62 233.31
923062.12 6510147.19 233.3
923064.64 6510146.76 233.31
923065.28 6510146.65 233.26
923114.27 6510138.27 234.39
923116.18 6510137.92 235.09
923132.19 6510135.28 232.84
923069.51 6510146.02 233.05
923067.52 6510146.35 233.38
923066.89 6510146.46 233.35
923066.27 6510146.57 233.29
923061.05 6510147.46 233.31
923059.07 6510147.8 233.27
923056.4 6510148.25 233.25
923053.0 6510148.83 233.25
923052.32 6510148.95 233.22
923048.86 6510149.54 233.2
923048.16 6510149.66 233.21
923046.06 6510150.02 233.17
923045.36 6510150.14 233.18
923044.66 6510150.26 233.11
923042.54 6510150.63 233.09
923041.82 6510150.75 233.1
923039.63 6510151.12 233.19
923042.84 6510151.25 233.11
923044.23 6510151.01 233.04
923046.25 6510150.67 233.18
923065.27 6510147.43 233.33
923070.31 6510146.58 233.07
923114.52 6510139.03 234.44
923115.53 6510138.85 234.77
923116.18 6510138.73 235.02
923116.73 6510138.62 235.5
923133.91 6510135.8 232.6
923132.43 6510136.06 232.84
923116.68 6510138.67 235.4
923115.75 6510138.85 234.89
923066.06 6510147.39 233.33
923064.76 6510147.61 233.34
923062.13 6510148.06 233.34
923058.15 6510148.74 233.21
923056.81 6510148.97 233.18
923056.11 6510149.09 233.24
923052.68 6510149.67 233.22
923049.91 6510150.14 233.21
923049.21 6510150.26 233.19
923048.5 6510150.38 233.2
923047.1 6510150.62 233.18
923046.39 6510150.74 233.18
923045.68 6510150.86 233.19
923044.99 6510150.99 233.11
923042.13 6510151.47 233.07
923038.47 6510152.09 233.19
923045.42 6510151.51 233.15
923046.78 6510151.27 233.15
923048.79 6510150.93 233.23
923049.48 6510150.82 233.19
923050.81 6510150.59 233.22
923051.47 6510150.48 233.25
923052.82 6510150.25 233.25
923056.12 6510149.69 233.24
923058.08 6510149.36 233.26
923059.4 6510149.14 233.22
923062.6 6510148.59 233.28
923065.11 6510148.16 233.35
923115.47 6510139.58 234.61
923116.07 6510139.47 235.0
923116.24 6510139.48 235.0
923115.9 6510139.54 234.9
923115.3 6510139.66 234.46
923072.46 6510147.01 232.68
923064.65 6510148.32 233.34
923063.99 6510148.43 233.32
923062.7 6510148.65 233.29
923062.03 6510148.76 233.31
923061.38 6510148.87 233.28
923060.05 6510149.1 233.26
923058.72 6510149.32 233.25
923057.4 6510149.55 233.19
923056.7 6510149.67 233.23
923054.68 6510150.01 233.22
923054.0 6510150.13 233.21
923053.3 6510150.25 233.24
923052.62 6510150.36 233.22
923051.92 6510150.48 233.23
923049.14 6510150.95 233.23
923047.76 6510151.19 233.18
923046.36 6510151.43 233.17
923045.65 6510151.55 233.16
923038.36 6510153.45 233.22
923042.55 6510152.74 233.08
923047.28 6510151.94 233.15
923057.22 6510150.26 233.2
923057.85 6510150.15 233.21
923059.15 6510149.93 233.23
923063.59 6510149.18 233.33
923067.34 6510148.54 233.34
923115.58 6510140.35 234.58
923115.86 6510140.29 234.82
923116.17 6510140.23 234.95
923133.47 6510137.38 232.65
923115.75 6510140.35 234.71
923115.43 6510140.41 234.59
923068.27 6510148.46 233.3
923067.64 6510148.57 233.32
923066.98 6510148.68 233.35
923063.12 6510149.33 233.34
923062.47 6510149.44 233.34
923061.83 6510149.55 233.29
923057.87 6510150.23 233.21
923057.2 6510150.34 233.2
923050.38 6510151.5 233.2
923047.61 6510151.97 233.17
923045.54 6510152.32 233.06
923039.07 6510153.41 233.21
923040.66 6510153.98 233.16
923046.18 6510153.06 233.08
923047.51 6510152.83 233.13
923048.17 6510152.72 233.16
923051.52 6510152.15 233.22
923052.17 6510152.04 233.27
923052.83 6510151.93 233.25
923056.13 6510151.37 233.25
923058.1 6510151.04 233.23
923058.75 6510150.93 233.23
923060.69 6510150.61 233.24
923061.31 6510150.5 233.27
923065.11 6510149.86 233.31
923115.69 6510141.28 234.97
923116.43 6510141.16 234.94
923116.67 6510141.1 235.26
923116.58 6510141.18 235.15
923115.48 6510141.36 235.14
923067.07 6510149.63 233.36
923061.85 6510150.51 233.36
923061.21 6510150.62 233.27
923057.88 6510151.19 233.23
923056.52 6510151.42 233.25
923049.63 6510152.58 233.22
923048.95 6510152.7 233.17
923048.25 6510152.82 233.17
923046.23 6510154.01 233.08
923046.89 6510153.89 233.13
923048.9 6510153.55 233.22
923049.58 6510153.44 233.22
923054.91 6510152.54 233.25
923065.91 6510150.7 233.26
923068.39 6510150.27 233.36
923069.02 6510150.17 233.32
923073.37 6510149.45 233.14
923073.21 6510149.58 233.06
923068.65 6510150.34 233.34
923061.37 6510151.57 233.27
923060.7 6510151.69 233.23
923053.84 6510152.85 233.23
923052.44 6510153.08 233.25
923048.92 6510153.68 233.22
923048.22 6510153.8 233.17
923046.1 6510154.16 233.06
923044.66 6510154.4 233.08
923040.01 6510156.09 233.22
923048.29 6510154.71 233.15
923049.65 6510154.48 233.16
923058.94 6510152.93 233.23
923061.54 6510152.49 233.22
923066.6 6510151.64 233.37
923072.88 6510150.59 233.1
923135.8 6510140.06 232.52
923135.98 6510140.03 232.52
923135.52 6510140.12 232.55
923118.32 6510142.95 235.4
923072.57 6510150.74 233.12
923066.1 6510151.82 233.33
923060.84 6510152.71 233.22
923058.81 6510153.05 233.23
923046.37 6510155.15 233.02
923045.65 6510155.27 233.02
923038.37 6510156.49 233.21
923061.72 6510153.58 233.23
923118.67 6510144.0 235.3
923121.12 6510143.64 235.49
923118.91 6510144.02 235.23
923112.28 6510145.23 232.46
923063.36 6510153.43 233.28
923062.71 6510153.54 233.24
923060.72 6510153.88 233.23
923053.23 6510155.13 233.3
923051.16 6510155.48 233.26
923049.1 6510155.83 233.15
923044.16 6510156.66 233.03
923047.45 6510157.13 233.03
923048.78 6510156.91 233.16
923052.78 6510156.24 233.33
923054.1 6510156.02 233.38
923060.72 6510154.92 233.25
923072.08 6510153.02 233.26
923074.32 6510152.78 233.18
923071.79 6510153.21 233.24
923065.25 6510154.3 233.49
923064.64 6510154.4 233.29
923062.66 6510154.74 233.24
923061.99 6510154.85 233.25
923061.33 6510154.96 233.26
923057.29 6510155.64 233.15
923055.87 6510155.88 233.29
923055.18 6510155.99 233.29
923054.47 6510156.11 233.35
923052.4 6510156.46 233.3
923051.02 6510156.69 233.24
923041.64 6510159.5 233.18
923047.18 6510158.59 232.97
923048.52 6510158.37 233.02
923049.85 6510158.14 233.16
923053.15 6510157.59 233.32
923053.81 6510157.48 233.31
923064.86 6510155.64 233.3
923136.48 6510143.79 232.46
923119.85 6510146.54 235.32
923074.84 6510154.15 233.17
923072.33 6510154.57 233.26
923065.92 6510155.63 233.39
923064.63 6510155.85 233.3
923058.67 6510156.85 233.26
923049.77 6510158.34 233.15
923049.2 6510159.68 233.06
923053.88 6510158.9 233.2
923054.54 6510158.79 233.23
