:FileType xyz  ASCII  EnSim 1.0
:EndHeader
978170.344616 6561622.84438 623.101989746
978167.34735 6561629.838 623.278991699
978196.320921 6561617.84894 623.37097168
978204.313631 6561615.85076 625.137023926
978208.309985 6561614.85167 624.911987305
978222.297226 6561618.84803 623.719970703
978224.295404 6561616.84985 623.974975586
978230.289936 6561616.84985 624.734008789
978233.287202 6561618.84803 624.997009277
978229.290847 6561618.84803 623.994018555
978272.251659 6561708.76601 623.893981934
978273.250748 6561712.76236 623.383972168
978272.251659 6561730.74596 623.403991699
978249.27262 6561768.71133 624.981994629
978252.269886 6561769.71041 624.349975586
978258.264418 6561766.71315 624.827026367
978259.263507 6561770.7095 625.335021973
978258.264418 6561765.71406 624.297973633
978255.267152 6561766.71315 623.929016113
978257.265329 6561763.71588 623.289001465
978252.269886 6561764.71497 623.45098877
978252.269886 6561766.71315 624.17199707
978254.268063 6561765.71406 623.348022461
978258.264418 6561761.7177 623.875
978268.255305 6561737.73958 623.833984375
978271.252571 6561716.75872 623.351989746
978266.257127 6561729.74687 623.953979492
978248.273532 6561761.7177 623.143981934
978240.280822 6561766.71315 625.098999023
978242.279 6561776.70403 623.458984375
978248.273532 6561781.69948 623.54901123
978249.27262 6561771.70859 624.242980957
978245.276266 6561774.70586 624.369995117
978248.273532 6561777.70312 624.00402832
978243.278088 6561770.7095 623.979003906
978247.274443 6561768.71133 625.195983887
978241.279911 6561769.71041 624.070983887
978239.281734 6561771.70859 623.796020508
978238.282645 6561784.69674 623.947021484
978239.281734 6561773.70677 623.481018066
978237.283556 6561782.69857 623.99597168
978181.334591 6561767.71224 623.005004883
978161.352818 6561801.68125 624.29699707
978063.44213 6561978.51994 624.361999512
978059.445775 6561978.51994 623.192993164
978060.444864 6561980.51812 624.213989258
978060.444864 6561983.51539 624.249023438
978059.445775 6561980.51812 624.241027832
978058.446686 6561979.51903 623.231994629
978057.447598 6561980.51812 623.268981934
978058.446686 6561982.5163 624.348999023
978057.447598 6561982.5163 624.150024414
978049.454889 6561986.51265 623.159973145
978059.445775 6561984.51448 624.021972656
978060.444864 6561984.51448 624.07598877
978048.4558 6561987.51174 623.130004883
978054.450332 6561985.51356 623.650024414
978055.449421 6561983.51539 623.79901123
978056.448509 6561980.51812 623.159973145
978366.165993 6561998.50172 625.492980957
978377.155968 6561991.5081 625.000976563
978387.146855 6561939.55549 625.101989746
978372.160525 6561982.5163 624.823974609
978362.169639 6561915.57736 624.888977051
978349.181486 6561894.5965 625.557983398
978345.185131 6561883.60652 624.557006836
978343.186954 6561867.6211 624.932006836
978337.192422 6561856.63113 624.036987305
978332.196979 6561855.63204 624.79699707
978331.19789 6561850.6366 623.929992676
978329.199713 6561850.6366 623.99798584
978317.210649 6561839.64662 624.830993652
978312.215206 6561832.653 624.325012207
978293.232521 6561826.65847 624.047973633
978303.223408 6561832.653 624.090026855
978306.220674 6561826.65847 624.567993164
978304.222496 6561823.6612 624.351989746
978305.221585 6561820.66394 623.843017578
978298.227964 6561821.66302 624.372009277
978300.226142 6561827.65756 624.510986328
978297.228876 6561819.66485 623.79498291
978291.234344 6561823.6612 624.327026367
978293.232521 6561827.65756 624.049987793
978275.248925 6561824.66029 623.708007813
978298.227964 6561846.64024 624.825012207
978324.20427 6561850.6366 624.861999512
978315.212472 6561855.63204 625.200012207
978322.206092 6561858.6293 624.604003906
978335.194245 6561869.61928 624.982971191
978341.188777 6561862.62566 624.804992676
978336.193333 6561861.62657 624.75
978325.203358 6561862.62566 624.624023438
978340.189688 6561882.60743 624.489990234
978331.19789 6561870.61837 624.872009277
978321.207004 6561860.62748 624.664978027
978319.208826 6561864.62384 625.026000977
978325.203358 6561878.61108 624.114013672
978337.192422 6561893.59741 625.460998535
978352.178752 6561947.5482 624.708984375
978374.158702 6561927.56642 625.375976563
978377.155968 6561910.58191 625.07800293
978381.152323 6561912.58009 625.530029297
978383.1505 6561917.57554 625.218994141
978379.154146 6561913.57918 625.482971191
978381.152323 6561930.56369 625.088012695
978358.173284 6561928.56551 625.17401123
978370.162348 6561930.56369 624.963012695
978340.189688 6561898.59285 624.898010254
978337.192422 6561894.5965 625.359985352
978327.201536 6561883.60652 624.947021484
978321.207004 6561877.61199 623.919006348
978321.207004 6561871.61746 624.835998535
978320.207915 6561870.61837 624.890991211
978313.214294 6561866.62201 624.854003906
978311.216117 6561853.63386 624.778015137
978312.215206 6561843.64297 624.260009766
978312.215206 6561838.64753 624.609985352
978306.220674 6561841.6448 624.325012207
978318.209738 6561853.63386 624.517028809
978315.212472 6561853.63386 624.976013184
978316.21156 6561859.62839 624.721008301
978276.248014 6561836.64935 623.922973633
978272.251659 6561834.65118 624.398986816
978087.420258 6561958.53817 623.351989746
978056.448509 6561743.73411 622.719970703
978020.481317 6561723.75234 623.708007813
978016.484963 6561718.75689 622.267028809
978022.479495 6561718.75689 622.25
978021.480406 6561720.75507 622.325012207
978020.481317 6561722.75325 623.802001953
978033.46947 6561725.75051 622.645019531
978050.453977 6561724.75142 622.426025391
978044.459445 6561726.7496 623.804992676
978042.461268 6561720.75507 622.348999023
978039.464002 6561725.75051 622.635009766
978043.460357 6561723.75234 622.598999023
978041.462179 6561724.75142 623.155029297
978046.457623 6561725.75051 622.796020508
978045.458534 6561725.75051 623.534973145
978049.454889 6561726.7496 623.403991699
978050.453977 6561727.74869 622.893005371
978050.453977 6561726.7496 623.16998291
978051.453066 6561727.74869 622.755981445
978048.4558 6561728.74778 623.354003906
978046.457623 6561726.7496 623.515991211
978047.456711 6561726.7496 622.812988281
978050.453977 6561731.74505 623.927978516
978053.451243 6561737.73958 622.835998535
978042.461268 6561728.74778 623.955993652
978037.465825 6561728.74778 623.736999512
978045.458534 6561734.74231 622.656005859
978047.456711 6561730.74596 623.739990234
978023.478583 6561724.75142 623.015991211
978029.473115 6561724.75142 623.228027344
978033.46947 6561726.7496 623.111022949
978027.474938 6561725.75051 623.534973145
978039.464002 6561731.74505 623.318969727
978043.460357 6561734.74231 622.723022461
978019.482229 6561724.75142 623.804992676
978016.484963 6561721.75416 622.37701416
978013.487697 6561720.75507 623.338012695
978011.48952 6561718.75689 622.221008301
978013.487697 6561718.75689 622.559020996
978008.492254 6561719.75598 622.202026367
978008.492254 6561720.75507 622.416992188
978009.491342 6561719.75598 622.633972168
978011.48952 6561719.75598 622.421020508
978013.487697 6561722.75325 623.724975586
978009.491342 6561721.75416 623.476013184
978008.492254 6561721.75416 622.937011719
978017.484052 6561722.75325 623.304992676
978016.484963 6561722.75325 622.926025391
978019.482229 6561721.75416 623.151977539
978018.48314 6561721.75416 623.249023438
978014.486786 6561721.75416 623.517028809
978015.485874 6561719.75598 622.380004883
978031.471293 6561730.74596 623.369018555
978031.471293 6561727.74869 623.598999023
978032.470381 6561728.74778 623.619995117
978027.474938 6561727.74869 623.640991211
978036.466736 6561731.74505 622.867980957
978028.474027 6561729.74687 623.098022461
978056.448509 6561791.69036 623.708007813
978109.400208 6561897.59376 623.012023926
978107.402031 6561901.59012 623.705993652
978312.215206 6561889.60105 625.416015625
978318.209738 6561896.59467 624.684997559
978334.195156 6561911.581 625.42199707
978337.192422 6561912.58009 624.965026855
978343.186954 6561903.58829 624.914978027
978349.181486 6561916.57645 625.310974121
978354.176929 6561906.58556 624.969970703
978355.176018 6561929.5646 625.416992188
978346.18422 6561933.56095 625.184997559
978349.181486 6561925.56824 624.945983887
978351.179663 6561933.56095 624.895019531
978336.193333 6561923.57007 625.197021484
978350.180575 6561958.53817 624.744995117
978361.17055 6561985.51356 624.833984375
978283.241635 6561986.51265 624.461975098
978270.253482 6561858.6293 625.252990723
978254.268063 6561832.653 624.478027344
978210.308163 6561813.67032 624.04699707
978233.287202 6561800.68216 624.770019531
978241.279911 6561814.6694 624.875976563
978244.277177 6561818.66576 624.570007324
978241.279911 6561809.67396 624.484008789
978237.283556 6561796.68581 623.827026367
978229.290847 6561797.6849 624.697021484
978233.287202 6561790.69128 623.538024902
978231.289024 6561794.68763 624.531982422
978209.309074 6561784.69674 624.611022949
978216.302694 6561781.69948 623.791015625
978213.305429 6561785.69583 624.148010254
978223.296315 6561792.68945 624.814025879
978213.305429 6561788.6931 624.492980957
978219.29996 6561786.69492 623.901977539
978225.294492 6561785.69583 623.437988281
978232.288113 6561779.7013 624.068969727
978231.289024 6561783.69766 624.119995117
978237.283556 6561771.70859 623.698974609
978234.28629 6561770.7095 624.099975586
978233.287202 6561774.70586 623.708007813
978217.301783 6561767.71224 623.276977539
978230.289936 6561764.71497 625.07800293
978237.283556 6561758.72044 623.223022461
978266.257127 6561733.74322 623.432006836
978254.268063 6561752.72591 623.90802002
978260.262595 6561737.73958 623.375976563
978264.25895 6561729.74687 623.90802002
978267.256216 6561725.75051 623.37701416
978271.252571 6561712.76236 623.403991699
978263.259861 6561702.77147 623.390014648
978207.310897 6561759.71953 625.007995605
978207.310897 6561767.71224 623.427001953
978209.309074 6561779.7013 623.387023926
978213.305429 6561774.70586 623.911010742
978216.302694 6561773.70677 623.922973633
978227.29267 6561774.70586 624.150024414
978229.290847 6561768.71133 623.882019043
978231.289024 6561770.7095 624.286987305
978226.293581 6561768.71133 623.367004395
978215.303606 6561779.7013 623.512023926
978208.309985 6561772.70768 623.846984863
978204.313631 6561773.70677 623.960998535
978193.323655 6561770.7095 623.125976563
978200.317276 6561763.71588 623.348999023
978198.319099 6561762.71679 623.539001465
978203.314542 6561761.7177 624.570007324
978204.313631 6561760.71862 624.827026367
978205.312719 6561754.72408 623.028015137
978212.30634 6561756.72226 624.145996094
978217.301783 6561751.72682 623.098999023
978229.290847 6561747.73046 623.79901123
978242.279 6561750.72773 623.221984863
978242.279 6561758.72044 623.866027832
978250.271709 6561757.72135 623.851989746
978252.269886 6561761.7177 623.210998535
978255.267152 6561763.71588 623.757019043
978255.267152 6561765.71406 623.401977539
978257.265329 6561764.71497 623.323974609
978242.279 6561761.7177 623.437011719
978239.281734 6561763.71588 623.867004395
978237.283556 6561766.71315 624.965026855
978235.285379 6561764.71497 624.952026367
978236.284468 6561761.7177 623.685974121
978234.28629 6561761.7177 623.742004395
978233.287202 6561757.72135 623.153991699
978222.297226 6561756.72226 623.12902832
978224.295404 6561762.71679 624.973022461
978224.295404 6561765.71406 624.599975586
978222.297226 6561764.71497 624.734985352
978222.297226 6561762.71679 624.825012207
978215.303606 6561762.71679 624.804992676
978216.302694 6561760.71862 624.831970215
978216.302694 6561755.72317 623.193969727
978213.305429 6561755.72317 623.267028809
978214.304517 6561757.72135 624.276000977
978214.304517 6561760.71862 624.895996094
978210.308163 6561765.71406 623.494018555
978212.30634 6561762.71679 624.677978516
978212.30634 6561760.71862 624.947021484
978209.309074 6561755.72317 623.244995117
978207.310897 6561758.72044 624.913024902
978206.311808 6561755.72317 623.148986816
978205.312719 6561757.72135 624.213989258
978203.314542 6561759.71953 624.934997559
978201.316365 6561759.71953 624.818969727
978202.315453 6561758.72044 624.791992188
978191.325478 6561763.71588 623.335021973
978199.318187 6561758.72044 624.739990234
978201.316365 6561757.72135 624.648010254
978195.321833 6561744.7332 622.958007813
978199.318187 6561752.72591 623.088989258
978195.321833 6561758.72044 624.601989746
978193.323655 6561757.72135 624.697021484
978194.322744 6561752.72591 623.091003418
978195.321833 6561755.72317 624.338989258
978188.328212 6561756.72226 624.893005371
978187.329123 6561759.71953 623.913024902
978189.327301 6561762.71679 623.815979004
978189.327301 6561764.71497 623.158996582
978186.330035 6561763.71588 623.734008789
978191.325478 6561752.72591 623.164978027
978193.323655 6561753.725 623.20098877
978191.325478 6561755.72317 624.581970215
978191.325478 6561751.72682 623.28302002
978059.445775 6561728.74778 622.478027344
978062.443041 6561693.77968 623.0
978101.407499 6561710.76418 622.625
978109.400208 6561684.78788 623.523010254
978104.404765 6561668.80246 622.661010742
978111.398385 6561648.82069 622.776977539
978109.400208 6561646.82251 623.081970215
978108.401119 6561649.81978 622.698974609
978110.399297 6561664.80611 622.604003906
978121.389272 6561640.82798 623.442993164
978123.387449 6561638.8298 622.932006836
978133.378336 6561638.8298 622.942016602
978124.386538 6561639.82889 622.869018555
978120.390183 6561643.82524 622.885009766
978117.392917 6561644.82433 623.317016602
978113.396563 6561645.82342 622.880004883
978115.39474 6561641.82707 622.963012695
978119.391095 6561640.82798 622.926025391
978117.392917 6561639.82889 623.28302002
978116.393829 6561639.82889 622.968017578
978116.393829 6561646.82251 622.882019043
978129.381981 6561665.80519 622.952026367
978126.384715 6561658.81157 623.375
978128.382893 6561651.81795 622.87097168
978129.381981 6561656.8134 623.481994629
978132.379247 6561649.81978 622.926025391
978131.380159 6561657.81248 623.479003906
978136.375602 6561658.81157 623.534973145
978181.334591 6561698.77512 623.638977051
978253.268975 6561674.79699 623.989990234
978277.247103 6561685.78697 623.565979004
978282.242546 6561698.77512 624.304016113
978288.237078 6561704.76965 623.588989258
978279.24528 6561699.77421 623.70501709
978283.241635 6561701.77239 624.150024414
978281.243457 6561696.77694 623.692993164
978285.239812 6561696.77694 624.221984863
978283.241635 6561694.77876 623.682006836
978286.238901 6561695.77785 624.156005859
978285.239812 6561693.77968 623.729003906
978292.233432 6561696.77694 624.138000488
978281.243457 6561665.80519 624.260986328
978283.241635 6561663.80702 623.825012207
978281.243457 6561662.80793 623.780029297
978195.321833 6561693.77968 623.179992676
978225.294492 6561743.73411 623.143005371
978231.289024 6561742.73502 623.867004395
978238.282645 6561748.72955 623.801025391
978248.273532 6561743.73411 623.242004395
978245.276266 6561742.73502 623.781005859
978253.268975 6561739.73775 623.280029297
978260.262595 6561714.76054 623.861999512
978264.25895 6561714.76054 623.356018066
978264.25895 6561711.76327 623.835998535
978263.259861 6561707.76692 623.322021484
978262.260773 6561717.7578 623.385986328
978256.266241 6561732.74413 623.771972656
978246.275354 6561728.74778 623.328979492
978232.288113 6561738.73867 623.739013672
978206.311808 6561711.76327 623.648010254
978188.328212 6561702.77147 623.159973145
978184.331857 6561707.76692 623.137023926
978185.330946 6561749.72864 622.929016113
978186.330035 6561754.72408 624.637023926
978187.329123 6561750.72773 623.729003906
978189.327301 6561752.72591 623.956970215
978187.329123 6561751.72682 623.585998535
978189.327301 6561749.72864 622.986999512
978186.330035 6561756.72226 624.78302002
978186.330035 6561759.71953 623.896972656
978184.331857 6561754.72408 624.622009277
978185.330946 6561756.72226 624.713012695
978184.331857 6561759.71953 623.849975586
978184.331857 6561756.72226 624.724975586
978163.350996 6561753.725 624.671020508
978170.344616 6561757.72135 623.375
978178.337325 6561753.725 624.632019043
978181.334591 6561756.72226 624.622009277
978181.334591 6561758.72044 623.927978516
978174.340971 6561755.72317 624.585998535
978173.341882 6561757.72135 624.114990234
978178.337325 6561764.71497 623.823974609
978173.341882 6561775.70495 623.226013184
978163.350996 6561765.71406 623.206970215
978176.339148 6561768.71133 623.218017578
978173.341882 6561762.71679 623.786010742
978171.343705 6561766.71315 623.796020508
978174.340971 6561771.70859 623.604980469
978168.346439 6561783.69766 624.291992188
978175.340059 6561804.67852 623.874023438
978182.33368 6561784.69674 624.252990723
978206.311808 6561778.70221 623.356994629
978176.339148 6561783.69766 623.867004395
978142.370134 6561850.6366 624.085021973
978137.37469 6561822.66211 623.619018555
978157.356464 6561783.69766 624.223022461
978166.348262 6561776.70403 623.047973633
978160.35373 6561775.70495 623.056030273
978162.351907 6561770.7095 623.484008789
978167.34735 6561767.71224 623.268005371
978171.343705 6561772.70768 623.010986328
978159.354641 6561778.70221 623.874023438
978131.380159 6561746.73137 624.440002441
978128.382893 6561738.73867 622.645996094
978166.348262 6561745.73229 622.82598877
978168.346439 6561752.72591 624.517028809
978168.346439 6561754.72408 624.434997559
978167.34735 6561749.72864 623.461975098
978166.348262 6561747.73046 623.614013672
978165.349173 6561751.72682 624.413024902
978173.341882 6561751.72682 624.49597168
978168.346439 6561747.73046 622.890991211
978174.340971 6561747.73046 623.729003906
978176.339148 6561739.73775 622.848999023
978175.340059 6561745.73229 622.956970215
978178.337325 6561749.72864 623.098999023
978176.339148 6561747.73046 623.62097168
978180.335503 6561748.72955 622.885009766
978181.334591 6561750.72773 623.914001465
978179.336414 6561750.72773 623.276000977
978183.332769 6561750.72773 623.12902832
978181.334591 6561749.72864 623.659973145
978183.332769 6561749.72864 622.942016602
978182.33368 6561751.72682 623.645019531
978182.33368 6561754.72408 624.669006348
978181.334591 6561751.72682 624.135009766
978142.370134 6561746.73137 623.568969727
978136.375602 6561742.73502 623.994018555
978140.371956 6561739.73775 622.784973145
978176.339148 6561713.76145 623.434020996
978121.389272 6561689.78332 622.890014648
978125.385627 6561677.79426 623.40802002
978131.380159 6561666.80428 622.971008301
978164.350084 6561683.78879 623.226013184
978187.329123 6561691.7815 623.536987305
978171.343705 6561655.81431 623.29699707
978176.339148 6561632.83527 623.677001953
978174.340971 6561628.83891 623.181030273
978177.338237 6561628.83891 623.138977051
978186.330035 6561618.84803 623.50201416
978180.335503 6561629.838 623.140991211
978177.338237 6561637.83071 623.653015137
978199.318187 6561619.84712 623.260009766
978204.313631 6561616.84985 624.757995605
978210.308163 6561616.84985 623.812011719
978203.314542 6561618.84803 624.081970215
978209.309074 6561618.84803 623.510986328
978219.29996 6561618.84803 624.163024902
978223.296315 6561619.84712 623.703979492
978219.29996 6561619.84712 624.03302002
978205.312719 6561626.84074 623.255004883
978180.335503 6561631.83618 623.62298584
978183.332769 6561629.838 623.163024902
978181.334591 6561632.83527 623.692016602
978188.328212 6561630.83709 623.195007324
978183.332769 6561637.83071 623.617980957
978191.325478 6561681.79061 623.611022949
978207.310897 6561689.78332 623.672973633
978208.309985 6561637.83071 623.664978027
978205.312719 6561686.78606 623.302001953
978209.309074 6561685.78697 623.765014648
978206.311808 6561684.78788 623.348999023
978222.297226 6561674.79699 623.476013184
978226.293581 6561677.79426 623.909973145
978255.267152 6561709.76509 623.331970215
978257.265329 6561697.77603 623.835021973
978239.281734 6561682.7897 623.465026855
978236.284468 6561683.78879 623.875
978239.281734 6561685.78697 623.492980957
978250.271709 6561702.77147 623.744018555
978241.279911 6561720.75507 623.864013672
978252.269886 6561720.75507 623.331970215
978262.260773 6561726.7496 623.369995117
978254.268063 6561715.75963 623.843017578
978253.268975 6561711.76327 623.359008789
978245.276266 6561712.76236 623.343017578
978249.27262 6561718.75689 623.877990723
978244.277177 6561722.75325 623.367004395
978234.28629 6561689.78332 623.817016602
978226.293581 6561684.78788 623.533996582
978219.29996 6561687.78514 623.888977051
978224.295404 6561689.78332 623.507019043
978226.293581 6561715.75963 623.221984863
978226.293581 6561707.76692 623.638977051
978235.285379 6561706.76783 623.335998535
978240.280822 6561716.75872 623.364013672
978243.278088 6561716.75872 623.825012207
978238.282645 6561719.75598 623.426025391
978234.28629 6561733.74322 623.323974609
978239.281734 6561724.75142 623.333984375
978227.29267 6561741.73593 623.635986328
978213.305429 6561721.75416 623.218017578
978226.293581 6561739.73775 623.181030273
978236.284468 6561691.7815 623.440979004
978230.289936 6561690.78241 623.776977539
978256.266241 6561692.78059 623.494018555
978262.260773 6561691.7815 623.812011719
978268.255305 6561694.77876 623.45300293
978270.253482 6561704.76965 623.421020508
978260.262595 6561687.78514 623.513977051
978244.277177 6561688.78423 623.796020508
978236.284468 6561681.79061 623.893981934
978240.280822 6561679.79243 623.547973633
978237.283556 6561678.79335 623.906005859
978226.293581 6561663.80702 623.895996094
978241.279911 6561677.79426 623.625976563
978221.298138 6561656.8134 623.518981934
978218.300872 6561666.80428 623.914001465
978214.304517 6561658.81157 623.471008301
978210.308163 6561671.79973 623.741027832
978216.302694 6561624.84256 623.486999512
978199.318187 6561699.77421 623.664001465
978193.323655 6561697.77603 623.625976563
978192.324567 6561695.77785 623.229980469
978204.313631 6561622.84438 623.275024414
978215.303606 6561615.85076 624.317993164
978215.303606 6561619.84712 623.609008789
978211.307251 6561615.85076 624.065002441
978221.298138 6561615.85076 624.00201416
978218.300872 6561615.85076 624.609985352
978197.32001 6561615.85076 623.661987305
978112.397474 6561668.80246 623.351013184
978119.391095 6561663.80702 622.851013184
978123.387449 6561655.81431 622.914978027
978123.387449 6561669.80155 623.396972656
978106.402942 6561674.79699 623.380981445
978109.400208 6561672.79881 622.976013184
978107.402031 6561670.80064 623.206970215
978090.417524 6561679.79243 623.736022949
978094.413878 6561691.7815 622.630981445
978097.411144 6561700.7733 623.143005371
978106.402942 6561689.78332 622.716003418
978104.404765 6561698.77512 623.163024902
978097.411144 6561681.79061 623.153015137
978095.412967 6561687.78514 623.335021973
978092.415701 6561683.78879 623.080993652
978093.41479 6561687.78514 623.181030273
978086.421169 6561691.7815 623.242004395
978083.423903 6561694.77876 622.666015625
978091.416612 6561703.77056 623.04498291
978079.427548 6561713.76145 622.505981445
978075.431194 6561709.76509 622.966003418
978071.434839 6561713.76145 622.484985352
978066.439396 6561698.77512 622.601013184
978060.444864 6561707.76692 622.877990723
978059.445775 6561712.76236 622.401977539
978056.448509 6561710.76418 622.409973145
978057.447598 6561693.77968 622.562988281
978050.453977 6561686.78606 622.960021973
978058.446686 6561690.78241 622.487976074
978060.444864 6561684.78788 622.818969727
978056.448509 6561679.79243 622.416992188
978049.454889 6561684.78788 622.411987305
978080.426637 6561674.79699 622.536010742
978089.418435 6561670.80064 623.229003906
978086.421169 6561667.80337 622.50402832
978088.419346 6561651.81795 622.867980957
978073.433016 6561650.81886 622.50402832
978076.430282 6561655.81431 622.818969727
978097.411144 6561668.80246 623.171020508
978099.409321 6561665.80519 622.586975098
978100.40841 6561668.80246 622.625
978099.409321 6561673.7979 623.476013184
978091.416612 6561671.79973 622.715026855
978093.41479 6561677.79426 623.340026855
978092.415701 6561674.79699 623.333984375
978096.412056 6561670.80064 622.765014648
978098.410233 6561669.80155 623.179992676
978095.412967 6561669.80155 622.588989258
978091.416612 6561670.80064 622.562011719
978088.419346 6561669.80155 622.544006348
978088.419346 6561670.80064 622.598999023
978086.421169 6561671.79973 623.00402832
978088.419346 6561672.79881 622.705993652
978085.42208 6561673.7979 623.052978516
978084.422992 6561673.7979 622.526000977
978086.421169 6561675.79608 623.24798584
978088.419346 6561684.78788 623.007995605
978081.425726 6561676.79517 623.242004395
978080.426637 6561693.77968 623.177001953
978061.443952 6561685.78697 622.50201416
978069.436662 6561680.79152 623.083007813
978068.437573 6561677.79426 622.458007813
978072.433928 6561678.79335 622.497009277
978074.432105 6561677.79426 623.080993652
978072.433928 6561677.79426 622.445983887
978071.434839 6561673.7979 622.468994141
978075.431194 6561677.79426 622.742004395
978076.430282 6561679.79243 623.20501709
978079.427548 6561697.77603 622.637023926
978096.412056 6561668.80246 622.992004395
978095.412967 6561668.80246 622.572021484
978102.406587 6561671.79973 622.755004883
978103.405676 6561676.79517 623.677001953
978106.402942 6561679.79243 623.17199707
978106.402942 6561684.78788 623.461975098
978108.401119 6561675.79608 623.447021484
978080.426637 6561736.74049 624.202026367
978079.427548 6561730.74596 622.554016113
978071.434839 6561732.74413 622.668029785
978068.437573 6561734.74231 623.940979004
978066.439396 6561733.74322 624.018005371
978059.445775 6561739.73775 622.630981445
978066.439396 6561740.73684 622.825012207
978057.447598 6561781.69948 622.994018555
978015.485874 6561735.7414 622.583007813
978014.486786 6561729.74687 622.723022461
978016.484963 6561724.75142 623.820983887
978009.491342 6561723.75234 623.645019531
978008.492254 6561727.74869 622.729003906
978006.494076 6561725.75051 623.380004883
978005.494988 6561722.75325 623.518005371
978006.494076 6561721.75416 623.382995605
978017.484052 6561729.74687 622.804992676
978021.480406 6561725.75051 623.697998047
978026.475849 6561734.74231 623.00201416
978056.448509 6561769.71041 623.476013184
978071.434839 6561748.72955 622.838012695
978066.439396 6561744.7332 623.153991699
978063.44213 6561751.72682 622.773986816
978071.434839 6561741.73593 622.768981934
978071.434839 6561734.74231 623.997009277
978071.434839 6561738.73867 623.643005371
978074.432105 6561739.73775 623.677978516
978078.42846 6561735.7414 623.500976563
978077.429371 6561736.74049 624.018981934
978075.431194 6561734.74231 623.682983398
978075.431194 6561732.74413 623.398986816
978073.433016 6561733.74322 623.150024414
978073.433016 6561732.74413 622.651000977
978074.432105 6561730.74596 623.223999023
978075.431194 6561730.74596 622.67401123
978074.432105 6561728.74778 622.543029785
978070.43575 6561731.74505 622.552001953
978065.440307 6561730.74596 623.224975586
978066.439396 6561727.74869 622.534973145
978066.439396 6561730.74596 622.616027832
978065.440307 6561731.74505 623.148010254
978063.44213 6561734.74231 623.768005371
978061.443952 6561732.74413 623.869018555
978059.445775 6561735.7414 623.645996094
978060.444864 6561773.70677 623.383972168
978074.432105 6561784.69674 624.03302002
978094.413878 6561784.69674 623.679016113
978103.405676 6561765.71406 622.848999023
978122.388361 6561745.73229 624.361999512
978118.392006 6561737.73958 622.598022461
978120.390183 6561740.73684 623.721008301
978122.388361 6561740.73684 622.982971191
978125.385627 6561740.73684 623.473999023
978125.385627 6561739.73775 623.161010742
978129.381981 6561741.73593 622.926025391
978126.384715 6561742.73502 623.802978516
978132.379247 6561740.73684 622.815979004
978137.37469 6561741.73593 623.018981934
978139.372868 6561744.7332 624.112976074
978140.371956 6561741.73593 623.624023438
978139.372868 6561745.73229 624.322021484
978118.392006 6561743.73411 624.361999512
978118.392006 6561748.72955 623.630981445
978107.402031 6561760.71862 623.648986816
978090.417524 6561745.73229 623.338012695
978077.429371 6561747.73046 623.351013184
978074.432105 6561751.72682 622.786010742
978092.415701 6561759.71953 623.786987305
978082.424814 6561773.70677 622.929016113
978069.436662 6561780.70039 623.231994629
978068.437573 6561786.69492 623.481018066
978105.403853 6561806.67669 624.000976563
978109.400208 6561894.5965 623.614013672
978111.398385 6561894.5965 623.526977539
978203.314542 6561945.55002 623.567016602
978289.236167 6561922.57098 624.252990723
978331.19789 6561911.581 624.702026367
978335.194245 6561900.59103 624.817016602
978329.199713 6561898.59285 625.289978027
978333.196067 6561893.59741 624.843017578
978328.200624 6561890.60014 624.749023438
978336.193333 6561888.60196 625.060974121
978336.193333 6561884.60561 624.354980469
978333.196067 6561886.60379 624.945007324
978321.207004 6561888.60196 624.697998047
978321.207004 6561894.5965 625.023986816
978325.203358 6561896.59467 624.833007813
978321.207004 6561881.60834 624.877990723
978319.208826 6561880.60926 624.890991211
978320.207915 6561874.61472 624.119018555
978316.21156 6561873.61563 624.309020996
978313.214294 6561873.61563 624.156005859
978315.212472 6561879.61017 625.020996094
978295.230698 6561863.62475 624.231994629
978292.233432 6561893.59741 624.809997559
978307.219762 6561890.60014 624.776000977
978294.23161 6561917.57554 624.744995117
978290.235255 6561916.57645 624.731994629
978274.249837 6561869.61928 624.476989746
978264.25895 6561866.62201 624.242004395
978258.264418 6561845.64115 624.987976074
978271.252571 6561838.64753 624.963989258
978274.249837 6561842.64389 625.093994141
978283.241635 6561845.64115 624.200012207
978289.236167 6561857.63022 623.835021973
978283.241635 6561857.63022 624.585021973
978291.234344 6561864.62384 624.914001465
978279.24528 6561863.62475 624.874023438
978271.252571 6561860.62748 624.66998291
978291.234344 6561872.61655 624.414978027
978293.232521 6561867.6211 624.713012695
978296.229787 6561872.61655 624.807006836
978310.217028 6561877.61199 624.619995117
978303.223408 6561870.61837 624.250976563
978273.250748 6561849.63751 624.697998047
978276.248014 6561847.63933 625.010986328
978280.244369 6561848.63842 624.145996094
978285.239812 6561853.63386 624.278991699
978277.247103 6561849.63751 625.067993164
978280.244369 6561851.63568 624.390991211
978277.247103 6561857.63022 624.960998535
978276.248014 6561852.63477 624.62701416
978262.260773 6561849.63751 624.635009766
978269.254393 6561850.6366 625.047973633
978271.252571 6561846.64024 624.643981934
978268.255305 6561847.63933 624.994995117
978269.254393 6561855.63204 624.835998535
978279.24528 6561840.64571 624.577026367
978283.241635 6561834.65118 623.940002441
978287.237989 6561837.64844 624.588989258
978289.236167 6561834.65118 624.007019043
978294.23161 6561835.65027 624.572021484
978298.227964 6561830.65482 624.124023438
978294.23161 6561832.653 624.013977051
978280.244369 6561830.65482 624.276977539
978274.249837 6561833.65209 624.015014648
978275.248925 6561829.65573 624.283996582
978271.252571 6561823.6612 623.70098877
978270.253482 6561836.64935 625.015014648
978260.262595 6561826.65847 624.757995605
978264.25895 6561825.65938 623.812988281
978268.255305 6561834.65118 624.617004395
978272.251659 6561832.653 624.070007324
978246.275354 6561829.65573 624.924987793
978247.274443 6561825.65938 624.653015137
978230.289936 6561830.65482 624.731018066
978235.285379 6561833.65209 624.306030273
978248.273532 6561832.653 624.523010254
978245.276266 6561834.65118 624.875
978250.271709 6561838.64753 624.484008789
978250.271709 6561835.65027 624.940979004
978252.269886 6561835.65027 624.867004395
978255.267152 6561847.63933 624.875976563
978252.269886 6561845.64115 624.413024902
978244.277177 6561862.62566 624.737976074
978244.277177 6561869.61928 624.051025391
978281.243457 6561906.58556 624.29498291
978206.311808 6561944.55093 624.072021484
978198.319099 6561933.56095 623.625
978232.288113 6561910.58191 624.296020508
978285.239812 6561955.5409 624.70300293
978335.194245 6561925.56824 624.594970703
978331.19789 6561922.57098 625.008972168
978333.196067 6561915.57736 624.757019043
978301.22523 6561922.57098 624.947021484
978324.20427 6561907.58465 625.091003418
978305.221585 6561920.5728 624.648010254
978303.223408 6561918.57462 625.038024902
978299.227053 6561908.58374 624.580993652
978303.223408 6561893.59741 625.075012207
978302.224319 6561895.59559 624.625
978304.222496 6561894.5965 625.025024414
978308.218851 6561892.59832 624.809020996
978296.229787 6561893.59741 624.577026367
978298.227964 6561903.58829 624.906982422
978300.226142 6561900.59103 624.640991211
978299.227053 6561894.5965 624.992980957
978323.205181 6561923.57007 625.028015137
978296.229787 6561946.54911 624.440979004
978304.222496 6561935.55913 625.041015625
978333.196067 6561937.55731 625.16998291
978338.191511 6561936.55822 624.715026855
978337.192422 6561939.55549 624.671020508
978336.193333 6561940.55457 624.664001465
978309.21794 6561947.5482 625.111999512
978313.214294 6561939.55549 624.70098877
978326.202447 6561935.55913 624.695983887
978332.196979 6561928.56551 624.96697998
978333.196067 6561939.55549 625.099975586
978336.193333 6561942.55275 624.611999512
978317.210649 6561949.54637 624.638977051
978305.221585 6561953.54273 624.632019043
978326.202447 6561904.58738 624.711975098
978331.19789 6561902.58921 625.114990234
978333.196067 6561908.58374 624.966003418
978335.194245 6561910.58191 625.343017578
978267.256216 6561956.53999 624.143981934
978268.255305 6561953.54273 624.616027832
978262.260773 6561955.5409 624.599975586
978264.25895 6561957.53908 624.168029785
978254.268063 6561955.5409 624.62902832
978227.29267 6561955.5409 624.465026855
978224.295404 6561947.5482 624.04498291
978203.314542 6561936.55822 624.067016602
978225.294492 6561954.54182 624.117004395
978185.330946 6561950.54546 624.023986816
978109.400208 6561898.59285 623.242004395
978112.397474 6561900.59103 623.797973633
978191.325478 6561932.56187 623.986022949
978114.395651 6561897.59376 623.281005859
978121.389272 6561900.59103 623.888977051
978135.376513 6561866.62201 623.54699707
978185.330946 6561922.57098 623.487976074
978194.322744 6561913.57918 624.062988281
978237.283556 6561869.61928 623.997009277
978236.284468 6561853.63386 624.54901123
978241.279911 6561842.64389 624.42199707
978208.309985 6561852.63477 623.853027344
978176.339148 6561858.6293 624.163024902
978176.339148 6561911.581 624.013000488
978180.335503 6561872.61655 623.75
978201.316365 6561857.63022 624.32598877
978204.313631 6561866.62201 623.864013672
978212.30634 6561868.62019 624.221984863
978211.307251 6561871.61746 623.887023926
978220.299049 6561863.62475 623.982971191
978190.326389 6561849.63751 624.655029297
978197.32001 6561837.64844 623.872009277
978225.294492 6561827.65756 624.265014648
978229.290847 6561823.6612 624.731018066
978236.284468 6561817.66667 624.439025879
978236.284468 6561821.66302 624.776000977
978241.279911 6561825.65938 624.541992188
978230.289936 6561818.66576 624.281005859
978211.307251 6561848.63842 624.351989746
978204.313631 6561846.64024 624.323974609
978195.321833 6561852.63477 624.007995605
978186.330035 6561852.63477 623.942016602
978189.327301 6561848.63842 624.585998535
978192.324567 6561845.64115 624.091003418
978187.329123 6561841.6448 623.859008789
978168.346439 6561840.64571 624.42199707
978167.34735 6561817.66667 623.698974609
978145.3674 6561820.66394 624.17401123
978139.372868 6561829.65573 624.232971191
978151.361932 6561838.64753 623.806030273
978165.349173 6561841.6448 623.91998291
978166.348262 6561829.65573 624.228027344
978171.343705 6561840.64571 623.963989258
978169.345528 6561841.6448 624.375
978171.343705 6561846.64024 623.818969727
978186.330035 6561847.63933 624.281982422
978172.342794 6561856.63113 623.732971191
978173.341882 6561858.6293 624.138977051
978162.351907 6561826.65847 623.710998535
978164.350084 6561818.66576 624.161987305
978154.359198 6561815.66849 623.895019531
978148.364666 6561825.65938 623.731018066
978150.362843 6561829.65573 624.109985352
978141.371045 6561843.64297 623.757995605
978134.377425 6561854.63295 623.978027344
978125.385627 6561820.66394 623.679992676
978131.380159 6561821.66302 623.992004395
978136.375602 6561820.66394 623.648986816
978144.368311 6561817.66667 624.133972168
978151.361932 6561808.67487 623.857971191
978145.3674 6561812.67123 624.171020508
978131.380159 6561809.67396 623.768981934
978136.375602 6561776.70403 622.895996094
978142.370134 6561749.72864 624.476989746
978134.377425 6561755.72317 623.440979004
978128.382893 6561749.72864 623.692993164
978127.383804 6561745.73229 624.346008301
978154.359198 6561765.71406 623.786987305
978160.35373 6561757.72135 623.768005371
978165.349173 6561757.72135 624.015014648
978166.348262 6561762.71679 623.205993652
978158.355552 6561754.72408 623.833007813
978161.352818 6561751.72682 624.468017578
978148.364666 6561746.73137 624.090026855
978142.370134 6561748.72955 624.481994629
978153.360109 6561750.72773 624.596008301
978160.35373 6561746.73137 622.892028809
978173.341882 6561722.75325 622.922973633
978165.349173 6561716.75872 623.432983398
978162.351907 6561730.74596 622.846008301
978151.361932 6561742.73502 622.794006348
978157.356464 6561746.73137 623.689025879
978158.355552 6561751.72682 624.499023438
978156.357375 6561747.73046 623.598999023
978155.358286 6561746.73137 623.765014648
978154.359198 6561747.73046 623.661987305
978156.357375 6561746.73137 623.211975098
978154.359198 6561745.73229 623.130981445
978153.360109 6561745.73229 623.594970703
978151.361932 6561744.7332 623.005981445
978158.355552 6561743.73411 622.815002441
978142.370134 6561741.73593 622.960021973
978146.366488 6561744.7332 623.133972168
978148.364666 6561744.7332 623.54901123
978145.3674 6561743.73411 623.461975098
978147.365577 6561743.73411 622.854003906
978142.370134 6561742.73502 623.432983398
978161.352818 6561713.76145 623.023986816
978155.358286 6561720.75507 623.520996094
978151.361932 6561729.74687 622.864013672
978152.36102 6561718.75689 622.950012207
978152.36102 6561721.75416 623.359985352
978163.350996 6561746.73137 623.481018066
978161.352818 6561745.73229 622.83001709
978164.350084 6561746.73137 623.000976563
978148.364666 6561756.72226 623.289978027
978151.361932 6561757.72135 623.781005859
978153.360109 6561753.725 623.866027832
978148.364666 6561749.72864 624.536010742
978142.370134 6561766.71315 623.552978516
978148.364666 6561760.71862 623.171020508
978149.363754 6561765.71406 623.265014648
978156.357375 6561774.70586 623.293029785
978153.360109 6561778.70221 623.054992676
978139.372868 6561776.70403 623.301025391
978140.371956 6561773.70677 623.023986816
978147.365577 6561779.7013 623.226013184
978148.364666 6561786.69492 624.138977051
978150.362843 6561782.69857 623.940002441
978141.371045 6561779.7013 623.125976563
978139.372868 6561783.69766 624.341003418
978126.384715 6561792.68945 623.901977539
978131.380159 6561784.69674 624.036987305
978120.390183 6561774.70586 622.911987305
978099.409321 6561779.7013 624.307983398
978100.40841 6561784.69674 623.75201416
978113.396563 6561789.69219 624.281982422
978114.395651 6561792.68945 623.762023926
978128.382893 6561806.67669 624.08001709
978136.375602 6561792.68945 623.846008301
978143.369222 6561800.68216 624.195983887
978104.404765 6561778.70221 623.08001709
978102.406587 6561781.69948 623.905029297
978106.402942 6561767.71224 623.278991699
978108.401119 6561764.71497 623.741027832
978119.391095 6561766.71315 623.625
978134.377425 6561762.71679 623.619995117
978128.382893 6561775.70495 623.213989258
978129.381981 6561764.71497 623.29498291
978131.380159 6561767.71224 623.520019531
978123.387449 6561764.71497 623.851013184
978125.385627 6561769.71041 623.241027832
978126.384715 6561779.7013 623.093994141
978126.384715 6561783.69766 624.005004883
978120.390183 6561779.7013 622.981994629
978118.392006 6561782.69857 623.913024902
978115.39474 6561789.69219 624.190002441
978118.392006 6561779.7013 623.059997559
978143.369222 6561759.71953 623.591003418
978142.370134 6561752.72591 623.749023438
978100.40841 6561776.70403 623.236022949
978095.412967 6561765.71406 623.125976563
978090.417524 6561763.71588 623.026977539
978080.426637 6561762.71679 623.387023926
978076.430282 6561764.71497 622.918029785
978068.437573 6561756.72226 623.215026855
978066.439396 6561760.71862 622.893005371
978079.427548 6561757.72135 622.846984863
978083.423903 6561759.71953 623.33001709
978087.420258 6561751.72682 623.843017578
978080.426637 6561748.72955 623.051025391
978085.42208 6561741.73593 623.416015625
978086.421169 6561746.73137 623.166992188
978083.423903 6561736.74049 624.081970215
978087.420258 6561731.74505 622.583007813
978088.419346 6561738.73867 624.083007813
978087.420258 6561734.74231 623.62701416
978105.403853 6561740.73684 624.187988281
978106.402942 6561745.73229 623.487976074
978113.396563 6561742.73502 623.945007324
978110.399297 6561743.73411 624.138977051
978115.39474 6561740.73684 623.79901123
978116.393829 6561740.73684 623.403991699
978116.393829 6561739.73775 623.059020996
978115.39474 6561739.73775 623.648986816
978095.412967 6561744.7332 623.182006836
978100.40841 6561742.73502 623.992004395
978096.412056 6561739.73775 624.176025391
978091.416612 6561736.74049 623.341003418
978088.419346 6561733.74322 623.434020996
978093.41479 6561730.74596 622.570007324
978104.404765 6561733.74322 622.635986328
978106.402942 6561734.74231 623.177001953
978111.398385 6561737.73958 623.008972168
978116.393829 6561738.73867 622.825012207
978115.39474 6561738.73867 623.296020508
978106.402942 6561732.74413 622.638977051
978101.407499 6561740.73684 624.208984375
978102.406587 6561736.74049 622.835998535
978103.405676 6561735.7414 623.278991699
978101.407499 6561735.7414 623.611999512
978101.407499 6561738.73867 623.637023926
978100.40841 6561738.73867 624.070007324
978091.416612 6561732.74413 622.663024902
978089.418435 6561732.74413 623.341003418
978091.416612 6561731.74505 622.583007813
978082.424814 6561733.74322 622.856018066
978080.426637 6561735.7414 624.025024414
978080.426637 6561734.74231 623.322998047
978081.425726 6561764.71497 622.927978516
978091.416612 6561776.70403 622.952026367
978094.413878 6561780.70039 624.091003418
978098.410233 6561777.70312 623.776000977
978097.411144 6561773.70677 622.939025879
978093.41479 6561781.69948 623.958007813
978091.416612 6561780.70039 623.500976563
978137.37469 6561780.70039 623.310974121
978135.376513 6561781.69948 623.835998535
978134.377425 6561779.7013 623.101013184
978130.38107 6561779.7013 623.473022461
978154.359198 6561769.71041 623.140991211
978159.354641 6561768.71133 623.223022461
978138.373779 6561747.73046 624.489013672
978130.38107 6561823.6612 624.192993164
978116.393829 6561823.6612 623.658996582
978114.395651 6561821.66302 623.994018555
978124.386538 6561811.67214 623.66998291
978120.390183 6561805.67761 624.018981934
978063.44213 6561802.68034 623.114990234
978035.467647 6561890.60014 623.695983887
978042.461268 6561912.58009 622.87097168
978043.460357 6561924.56916 623.32800293
978103.405676 6561903.58829 623.302001953
978106.402942 6561900.59103 623.598022461
978107.402031 6561898.59285 623.103027344
978107.402031 6561897.59376 623.043029785
978105.403853 6561900.59103 623.481018066
978049.454889 6561892.59832 623.182983398
978062.443041 6561809.67396 623.682006836
978107.402031 6561818.66576 623.554992676
978110.399297 6561854.63295 623.937011719
978110.399297 6561861.62657 623.40802002
978108.401119 6561885.6047 623.611022949
978105.403853 6561898.59285 623.073974609
978094.413878 6561897.59376 623.789978027
978076.430282 6561909.58283 622.966003418
978079.427548 6561920.5728 623.489013672
978091.416612 6561903.58829 623.171020508
978097.411144 6561904.58738 623.617980957
978096.412056 6561902.58921 623.346008301
978077.429371 6561910.58191 623.356018066
978099.409321 6561906.58556 623.632995605
978065.440307 6561914.57827 623.450012207
978044.459445 6561908.58374 623.416992188
978055.449421 6561911.581 622.92401123
978054.450332 6561907.58465 623.53302002
978061.443952 6561911.581 623.005981445
978069.436662 6561905.58647 623.552978516
978083.423903 6561903.58829 623.797973633
978081.425726 6561906.58556 623.205993652
978074.432105 6561907.58465 623.538024902
978071.434839 6561910.58191 623.085021973
978067.438484 6561910.58191 622.901000977
978064.441218 6561912.58009 623.484008789
978051.453066 6561910.58191 623.435974121
978043.460357 6561915.57736 623.351013184
978048.4558 6561912.58009 623.08001709
978050.453977 6561915.57736 623.380981445
978041.462179 6561907.58465 623.632019043
978037.465825 6561895.59559 623.270019531
978041.462179 6561909.58283 623.390991211
978041.462179 6561911.581 623.047973633
978028.474027 6561912.58009 623.103027344
978034.468559 6561901.59012 623.676025391
978039.464002 6561906.58556 623.247009277
978037.465825 6561911.581 623.554016113
978005.494988 6561791.69036 622.343994141
978010.490431 6561761.7177 623.377990723
978022.479495 6561787.69401 623.25402832
978006.494076 6561787.69401 622.992004395
978003.49681 6561738.73867 622.854003906
978013.487697 6561743.73411 623.257995605
978004.495899 6561734.74231 622.539001465
978011.48952 6561734.74231 622.883972168
978007.493165 6561736.74049 622.552978516
978012.488608 6561739.73775 622.74597168
978004.495899 6561765.71406 623.250976563
978005.494988 6561784.69674 623.059997559
978002.497722 6561791.69036 622.369995117
978002.497722 6561784.69674 623.124023438
978003.49681 6561745.73229 623.221984863
978002.497722 6561736.74049 622.789978027
978002.497722 6561727.74869 622.892028809
978002.497722 6561747.73046 623.239990234
978005.494988 6561803.67943 623.460021973
978019.482229 6561793.68854 622.471984863
978013.487697 6561792.68945 622.838012695
978013.487697 6561797.6849 623.50201416
978009.491342 6561793.68854 622.476013184
978008.492254 6561796.68581 623.119018555
978050.453977 6561807.67578 623.296020508
978038.464913 6561876.6129 623.052001953
978096.412056 6561859.62839 623.343994141
978097.411144 6561840.64571 624.091003418
978109.400208 6561827.65756 623.646972656
978103.405676 6561846.64024 623.713012695
978100.40841 6561853.63386 623.856994629
978094.413878 6561840.64571 623.609985352
978087.420258 6561858.6293 623.853027344
978084.422992 6561862.62566 623.45098877
978103.405676 6561881.60834 624.15802002
978099.409321 6561889.60105 623.275024414
978104.404765 6561894.5965 623.463989258
978098.410233 6561891.59923 623.781005859
978096.412056 6561890.60014 624.083984375
978098.410233 6561883.60652 623.317993164
978096.412056 6561864.62384 623.70098877
978093.41479 6561875.61381 623.682983398
978087.420258 6561891.59923 623.431030273
978089.418435 6561897.59376 623.625976563
978093.41479 6561887.60288 623.75
978074.432105 6561876.6129 623.672973633
978043.460357 6561883.60652 623.432006836
978037.465825 6561889.60105 623.283996582
978039.464002 6561891.59923 623.604003906
978053.451243 6561881.60834 623.151000977
978066.439396 6561869.61928 623.606994629
978062.443041 6561820.66394 623.322998047
978093.41479 6561807.67578 623.572021484
978075.431194 6561825.65938 623.895019531
978099.409321 6561823.6612 623.309020996
978098.410233 6561827.65756 623.768981934
978096.412056 6561815.66849 623.862976074
978094.413878 6561825.65938 623.414978027
978069.436662 6561815.66849 623.45501709
978066.439396 6561809.67396 623.661010742
978073.433016 6561813.67032 623.815979004
978073.433016 6561805.67761 623.463989258
978065.440307 6561796.68581 623.633972168
978087.420258 6561803.67943 623.867004395
978082.424814 6561795.68672 623.559997559
978087.420258 6561787.69401 623.901977539
978084.422992 6561779.7013 623.731994629
978078.42846 6561860.62748 623.414978027
978081.425726 6561830.65482 623.468017578
978097.411144 6561796.68581 624.007019043
978110.399297 6561790.69128 623.885986328
978106.402942 6561782.69857 623.948974609
978111.398385 6561782.69857 623.624023438
978109.400208 6561774.70586 622.934020996
978107.402031 6561779.7013 623.130004883
978043.460357 6561857.63022 623.520996094
978048.4558 6561860.62748 623.208984375
